# .PCD v0.7 - Point Cloud Data file format
VERSION 0.7
FIELDS x y z rgb
SIZE 4 4 4 4
TYPE F F F U
COUNT 1 1 1 1
WIDTH 1056
HEIGHT 1
VIEWPOINT 0 0 0 1 0 0 0
POINTS 1056
DATA ascii
0.034197208 -3.2619932 -0.62824768 4286153598
0.071372934 -3.2758865 -0.60972565 4289113772
0.31953627 -3.2969601 -0.61707354 4287667606
-0.15899569 -3.2405386 -0.60307407 4286285184
-0.03115347 -3.2174921 -0.61715078 4286022012
0.17590095 -3.2228806 -0.62608433 4288453273
0.68747735 -3.2290239 -0.60749006 4287864217
-0.057294995 -3.1829491 -0.61218446 4286285443
0.01882685 -3.1634068 -0.6284197 4286613893
0.054981977 -3.1803 -0.61546439 4290823880
0.3038778 -3.1954322 -0.62683702 4287733399
0.68023193 -3.16959 -0.60560864 4287929754
-0.021481428 -3.1282818 -0.62469417 4286350722
0.047047973 -3.1268849 -0.60323429 4291152592
0.17586093 -3.1289291 -0.63565749 4288453786
0.63518202 -3.1255209 -0.60288614 4287667352
0.68005139 -3.1352584 -0.6175884 4287930268
0.70966643 -3.1218708 -0.62844849 4287864476
-0.045351341 -3.0888131 -0.64919442 4286285184
0.042058825 -3.0592179 -0.60902739 4291283406
0.68650866 -3.0786519 -0.62023425 4287995803
-0.055763699 -3.0457287 -0.62326217 4286285184
0.70388949 -3.0269389 -0.64174378 4287798941
-0.067307256 -2.9914527 -0.60979623 4286087549
0.69708204 -2.9861956 -0.61536556 4287864988
0.70165312 -2.9645309 -0.60247791 4287798940
0.015540853 -2.9063647 -0.6486128 4286811528
-0.73532486 0.22644025 -0.62212467 4289507506
-0.73455697 0.28238842 -0.62106663 4288784556
-0.81517482 0.33856213 -0.64552116 4289442994
-0.75828558 0.32411578 -0.61503261 4288915885
-0.73346585 0.33527076 -0.62823826 4288456363
-0.82261914 0.39681542 -0.64009404 4289375664
-0.78070486 0.37414443 -0.62321663 4288719020
-0.74580491 0.39232361 -0.63629282 4288259242
-0.82287908 0.43472838 -0.62555748 4289047726
-0.77125585 0.42252862 -0.61513388 4288653226
-0.18169476 0.44686806 -0.61432952 4289178282
-0.87670553 0.48230326 -0.6233139 4289244846
-0.82340127 0.47708619 -0.61838007 4288849833
-0.77528495 0.47686803 -0.62840575 4288259494
-0.86165988 0.50048292 -0.6286056 4288850346
-0.81909949 0.50688732 -0.62237293 4288455334
-0.7848888 0.5280906 -0.63341808 4288258725
-0.16923463 0.50814259 -0.62919331 4289046439
0.40989026 0.53828311 -0.60344172 4287863193
-0.93062615 0.59644544 -0.60823417 4287996065
-0.88786095 0.57713252 -0.61139441 4288716963
-0.84177786 0.56908071 -0.62201184 4288127907
-0.79973382 0.57091606 -0.62816042 4288061604
-0.14466091 0.57911772 -0.60673237 4288651167
-0.073797055 0.56799877 -0.63146979 4288323230
0.46103981 0.57239103 -0.61106038 4287995033
-0.91773725 0.64113593 -0.64223588 4288911258
-0.89156163 0.62763411 -0.6124717 4288716451
-0.8283366 0.6280129 -0.624578 4288256412
-0.1642101 0.62201738 -0.62090731 4288586145
-0.10956673 0.60872698 -0.63371575 4288323745
0.43081078 0.62780857 -0.61168778 4287730578
0.47176227 0.62256432 -0.61775684 4287599506
0.514364 0.61088192 -0.62517631 4288126620
0.55405414 0.63498664 -0.62225431 4287929756
-0.87418699 0.68310833 -0.61287236 4287995551
-0.19809441 0.66207051 -0.63041341 4288718501
-0.13518274 0.65333909 -0.63105756 4288586146
-0.03366112 0.69012177 -0.60636425 4287072134
0.061757475 0.67591941 -0.63888562 4288256151
0.47609097 0.66197634 -0.60911429 4287402642
0.50894415 0.66394687 -0.62841332 4287731348
0.55448055 0.65539193 -0.60696441 4287797653
-0.87814522 0.7451812 -0.61192214 4287732380
-0.17700864 0.73512697 -0.61499023 4289041049
-0.13283794 0.72547907 -0.61392581 4288518555
-0.018425351 0.731758 -0.6246314 4286875526
0.045756646 0.73461807 -0.62725103 4286810502
0.052958544 0.71495378 -0.63271683 4288059540
0.13088553 0.72694111 -0.61577457 4287334533
0.38185084 0.7147876 -0.63191098 4289503139
0.42302775 0.71881616 -0.63037324 4289108121
0.46779755 0.72683138 -0.61453801 4287729552
0.52212125 0.72223359 -0.61388987 4287139725
0.56003731 0.74666858 -0.63436592 4287600533
-0.198771 0.76242089 -0.61228204 4289106842
-0.11038042 0.75937659 -0.6249029 4288518297
-0.066008605 0.77379203 -0.61556703 4287730322
-0.027225422 0.79052198 -0.61331528 4286809733
0.035851169 0.7803933 -0.62788224 4287007881
0.077218786 0.76798016 -0.62805974 4287466634
0.11559892 0.79337883 -0.62298 4287074189
0.46169788 0.77546239 -0.60529655 4287600020
0.53661615 0.79480827 -0.60511881 4286547589
0.56944156 0.78819925 -0.61415589 4287205517
-0.078930244 0.82224447 -0.62325412 4288254613
-0.032364383 0.84735668 -0.64060169 4288322202
0.020194016 0.82612789 -0.63361263 4287006597
0.076583304 0.81177753 -0.6122064 4287203718
0.51138675 0.8263607 -0.61767918 4287139724
-0.072985969 0.89061093 -0.62799513 4288121740
-0.012609238 0.88058156 -0.62928748 4287729039
0.023884222 0.87020981 -0.6294682 4287466892
0.48995745 0.88927865 -0.615578 4287664272
-0.027695237 0.91892445 -0.6231488 4287400583
0.018938301 0.90374589 -0.62285435 4287400841
0.48267952 0.94382691 -0.62787199 4287599248
0.5187642 0.90887356 -0.6203047 4287269770
-0.0010951678 0.96316099 -0.6160143 4287073929
0.034585468 0.97601259 -0.60993826 4286877065
0.43694738 0.98009682 -0.60140234 4287599248
0.47124937 0.97762942 -0.63542211 4287796628
0.5230729 0.9782486 -0.61892819 4287139211
0.57067138 0.97342491 -0.62517899 4287007881
0.044420943 1.0063844 -0.60348439 4286942088
0.48744968 1.0231833 -0.62848568 4287468690
0.46703443 1.0600915 -0.63641953 4287534228
0.53719944 1.146196 -0.60191333 4287074446
0.076034807 -3.9066632 -0.58062649 4287732888
-0.012529471 -3.8603363 -0.57884693 4287140239
0.038232155 -3.8728642 -0.56503046 4287470230
0.12494016 -3.8883343 -0.59704667 4288060572
0.1159889 -3.819875 -0.57036483 4287141262
0.046483934 -3.7773438 -0.58393455 4286878093
0.067587048 -3.7902431 -0.56519139 4287009677
0.12364677 -3.7771866 -0.55116242 4287404433
0.16899271 -3.7525306 -0.56172866 4286943882
0.044669539 -3.7280436 -0.55583864 4286878091
0.13625997 -3.7106605 -0.59344327 4287272850
0.17504525 -3.7091956 -0.58944321 4287141005
0.044589765 -3.6773381 -0.57424963 4287536023
0.079937264 -3.6701379 -0.58502364 4289245102
0.13280073 -3.676286 -0.5931263 4287141007
0.22753891 -3.6855936 -0.59311354 4286943882
0.27085596 -3.6728077 -0.57628977 4287205514
0.30683726 -3.6540201 -0.5719133 4287335814
0.021721829 -3.6347992 -0.57210445 4286811786
0.073328756 -3.6238716 -0.56937551 4289378228
0.12115113 -3.6129494 -0.56669426 4288851369
0.17182611 -3.6220195 -0.58163106 4288259486
0.2183497 -3.6227174 -0.56062746 4287337100
0.27435368 -3.6363754 -0.59689182 4287337871
0.48984513 -3.6050785 -0.57600391 4287337870
0.53082842 -3.6327858 -0.57766128 4287206542
0.56581438 -3.63379 -0.58335829 4289769646
0.61278147 -3.6282785 -0.58485675 4287140748
0.65411711 -3.6070566 -0.59556824 4286943882
0.035973094 -3.574801 -0.5674327 4288193953
0.081496119 -3.5843706 -0.57246524 4288785576
0.12296114 -3.5671644 -0.56050736 4289837752
0.19073389 -3.5722246 -0.5594942 4287733399
0.22574969 -3.5678549 -0.58834517 4287009419
0.28819543 -3.5786233 -0.58895004 4287074697
0.30323476 -3.570224 -0.58218306 4286285182
0.54248476 -3.5702891 -0.57448632 4287336843
0.58076149 -3.5701046 -0.58022535 4289243560
0.6156038 -3.5720112 -0.57280439 4287141005
0.66699386 -3.5644007 -0.58911443 4287140491
-0.89900446 -3.5045342 -0.5660035 4281215531
-0.012334537 -3.5484533 -0.5515244 4286745735
0.011447963 -3.5327232 -0.57820427 4287468689
0.070401818 -3.5199397 -0.58105248 4288258205
0.13610549 -3.519403 -0.56005085 4288783010
0.18007058 -3.5130677 -0.58218366 4287140749
0.21675339 -3.5245659 -0.57083333 4286614919
0.31463858 -3.5357778 -0.58051896 4287140491
0.46628478 -3.5337052 -0.58498603 4287469202
0.5064618 -3.5456896 -0.55680221 4287271303
0.58482242 -3.534642 -0.57307655 4287336845
0.64155293 -3.5244055 -0.5696919 4285890169
0.67775643 -3.5137711 -0.57554007 4287074443
-0.86631781 -3.4811404 -0.56291503 4280622882
-0.055035997 -3.473047 -0.57661748 4286548871
-0.022229696 -3.4759407 -0.57245791 4287535510
0.02088307 -3.4683247 -0.57361168 4286218619
0.075501874 -3.4895906 -0.56427097 4285886575
0.13079084 -3.472461 -0.56963629 4286877577
0.1710044 -3.4697704 -0.57507741 4288259231
0.29519916 -3.476922 -0.59161532 4287469715
0.34017432 -3.4773388 -0.56763053 4286943111
0.53038043 -3.4876015 -0.56751376 4286614148
0.56235391 -3.4857867 -0.58566391 4288981156
0.66454458 -3.4752774 -0.57773328 4287206027
0.72154206 -3.477087 -0.57489198 4286745478
-0.077830404 -3.4279115 -0.57515621 4288588198
-0.016394077 -3.4405403 -0.56663507 4286350463
0.03076157 -3.4208062 -0.58741307 4290692292
0.083536446 -3.4036515 -0.57026458 4285233265
0.13437285 -3.4186585 -0.56521451 4285759609
0.16406858 -3.4310958 -0.56793356 4290890953
0.32147604 -3.4461884 -0.58210087 4287337869
0.47391099 -3.4093385 -0.57124251 4287205772
0.52896571 -3.4297175 -0.57307386 4287272079
0.67481035 -3.4097776 -0.57266128 4287206286
0.7227872 -3.4296455 -0.56495845 4287403407
-0.12913853 -3.3721685 -0.5652504 4289575608
-0.071616702 -3.3733966 -0.56313008 4286220162
-0.02338841 -3.3844886 -0.5668022 4286481535
0.0051795691 -3.3646827 -0.58615446 4288454814
0.055882692 -3.3527005 -0.58028722 4288256921
0.10875498 -3.3647466 -0.56631404 4285298802
0.17322671 -3.3858886 -0.57308853 4289377456
0.33807334 -3.3950424 -0.56460571 4287009161
0.47791684 -3.3628786 -0.56114823 4287206285
0.5001002 -3.3940732 -0.56664348 4287207055
0.65042919 -3.3975935 -0.59129041 4287535249
0.72203714 -3.3744242 -0.55884069 4287008650
0.95124811 -3.3787086 -0.55154908 4287272594
-0.31491712 -3.3245363 -0.55982023 4281415728
-0.28582221 -3.3063025 -0.55747181 4281415729
-0.10112964 -3.3198414 -0.57490903 4286285440
-0.026672097 -3.3202016 -0.57069606 4286876551
0.036194399 -3.3297849 -0.57572156 4288125336
0.078430772 -3.3273437 -0.57525378 4287927956
0.3242276 -3.3290794 -0.59294057 4287404433
0.43690675 -3.3210697 -0.55355448 4287272077
0.54412752 -3.3294647 -0.5650419 4290690233
0.65789551 -3.3447866 -0.58249092 4287534995
0.73350132 -3.3229129 -0.56725597 4287469458
0.95491356 -3.3465772 -0.56070274 4287403668
-0.33633196 -3.2799339 -0.56654775 4282336318
-0.27854672 -3.2767723 -0.56250364 4281811001
-0.24902919 -3.2785552 -0.55841231 4282995532
-0.16014427 -3.2776506 -0.58040613 4289641401
-0.13467158 -3.2749953 -0.5751667 4286284927
-0.069817767 -3.2583427 -0.56618947 4286219647
-0.041086085 -3.2766547 -0.5813244 4286217850
0.022657255 -3.2808857 -0.56626213 4287138952
0.076203167 -3.2759373 -0.57996196 4289178538
0.10209896 -3.2903278 -0.59727728 4290823880
0.17952736 -3.2744355 -0.55613488 4290562244
0.70279646 -3.2837775 -0.59866005 4287863959
0.92463976 -3.2766507 -0.55521554 4287470228
-0.35662061 -3.2327724 -0.55303895 4281217837
-0.31865644 -3.2463386 -0.55444705 4283324239
-0.24573024 -3.2103651 -0.56480241 4283193166
-0.15821686 -3.2179699 -0.58166438 4286285184
-0.14218096 -3.2397232 -0.55142206 4286219904
-0.091910124 -3.2348509 -0.57546967 4286810758
-0.023948781 -3.2075555 -0.57720071 4285560946
0.019777894 -3.2424152 -0.55408353 4285101163
0.13212053 -3.2321653 -0.56270057 4291284683
0.32699504 -3.2234938 -0.57441133 4287404433
0.52556849 -3.2494609 -0.57943523 4290689978
-0.3702119 -3.1604209 -0.55916023 4283258186
-0.21079837 -3.1787415 -0.56038165 4284179550
-0.16944094 -3.1793838 -0.56860012 4288785834
-0.073879443 -3.1823063 -0.57650435 4285889911
-0.042155758 -3.1570714 -0.59600192 4285889911
0.070843644 -3.1919932 -0.58605927 4291218635
0.31570086 -3.1532729 -0.58081061 4287666837
0.66177595 -3.1680095 -0.59191138 4287601813
0.71103442 -3.1798072 -0.55235517 4287468944
0.94310504 -3.1766737 -0.57001495 4287403923
-0.17142469 -3.1340146 -0.55771178 4286086779
-0.12672201 -3.1037211 -0.55049378 4285689193
-0.097894892 -3.1271675 -0.55234867 4285691506
0.065707937 -3.128684 -0.58420569 4291218635
-0.17465898 -3.0902643 -0.5779624 4287864476
-0.11987738 -3.0976324 -0.55520642 4285495667
-0.073347241 -3.0731447 -0.58135957 4285759095
0.1165192 -3.0783916 -0.55538076 4291416012
0.92992085 -3.0878756 -0.56421292 4287469202
-0.38866103 -3.0218232 -0.59123385 4284771433
-0.18053886 -3.049747 -0.55362445 4284113756
-0.07472536 -3.0285046 -0.58020645 4285495667
0.071993858 -3.0393782 -0.57687938 4291218635
0.65611231 -3.0362992 -0.56857169 4290624187
0.70417392 -3.0321755 -0.5717122 4287733145
0.051999763 -2.9593985 -0.58916807 4291152844
0.64795142 -2.9518018 -0.55459517 4290493625
0.69711667 -2.9878862 -0.5970788 4287929755
-0.56355524 -2.8244867 -0.55667329 4288653735
-0.72620177 0.29825675 -0.59569132 4288980903
-0.73951107 0.33532512 -0.59133196 4288915882
-0.76213402 0.35713422 -0.59892321 4288916398
-0.20629756 0.37965643 -0.57077813 4289112489
-0.19990222 0.38284433 -0.59915251 4289178031
-0.2100658 0.41704309 -0.55169582 4288915878
-0.1839036 0.42122996 -0.564206 4288981672
-0.16729774 0.48512137 -0.58681273 4288979876
-0.11924877 0.49002481 -0.55943269 4287994779
-0.86785662 0.54838276 -0.58196318 4289042075
-0.79470915 0.50324988 -0.55725545 4288122515
-0.22838363 0.50726902 -0.5825398 4290227374
-0.15341675 0.52807647 -0.57863504 4288454815
-0.12199771 0.52519983 -0.56695962 4287599249
-0.085522734 0.53182983 -0.59952301 4288126364
0.36652452 0.5283252 -0.5741967 4288126877
-0.91560578 0.58934271 -0.55706346 4288390822
-0.82423228 0.57197505 -0.57466948 4288450966
-0.19275767 0.59329581 -0.59819376 4288586657
-0.07568907 0.58022052 -0.57644737 4287467920
0.3790983 0.58453918 -0.55389464 4287403409
0.40657336 0.57544374 -0.58327889 4287731604
0.46603742 0.59921908 -0.58924234 4287797140
0.50079238 0.57922912 -0.55360937 4287731859
-0.90776336 0.63780582 -0.58512735 4288259494
-0.13512383 0.62594718 -0.57849008 4288059289
-0.083960429 0.62500787 -0.57748067 4287336591
-0.048335433 0.64840829 -0.58847517 4287204491
0.42494354 0.62669104 -0.58019763 4287927188
0.46398824 0.62477106 -0.58335203 4287729553
0.51833808 0.62147427 -0.57886904 4287863702
-0.90446794 0.69278014 -0.58499658 4287930272
-0.87358767 0.68347871 -0.56447446 4287469979
-0.83208865 0.6673975 -0.55935919 4287535255
-0.13312028 0.68043351 -0.57563448 4288189847
-0.074300289 0.66276979 -0.55865538 4287402641
0.070652395 0.67246985 -0.58464599 4287072648
0.38890639 0.65049016 -0.59467208 4288911515
0.42384622 0.6668281 -0.57391912 4287468176
0.46639267 0.66477734 -0.58606786 4287795601
0.50247216 0.65461254 -0.58204699 4287467918
0.57176304 0.6752395 -0.5693661 4287074444
-0.88591164 0.7417835 -0.594091 4287732635
-0.17722258 0.72216797 -0.57838821 4288648086
-0.10666672 0.7260235 -0.58112061 4287859852
-0.072221592 0.73532462 -0.57105321 4287598220
0.072515301 0.71654421 -0.58341217 4286810758
0.11336589 0.73052669 -0.56748152 4286741627
0.49019465 0.71148288 -0.58997488 4286547332
0.53322941 0.70315933 -0.59027088 4287533968
0.5741002 0.73073471 -0.55903983 4286548104
0.60439676 0.71530974 -0.58986753 4286679688
-0.85500795 0.75859606 -0.59603179 4287274392
-0.20430136 0.79026675 -0.5845722 4288582806
-0.11462996 0.7812705 -0.58000153 4287994005
-0.061352871 0.78182858 -0.58030963 4287335306
0.046120904 0.76129091 -0.59267551 4287336333
0.098413527 0.76973295 -0.58067822 4286743424
0.40605167 0.78447354 -0.55711985 4286415999
0.46046343 0.7547828 -0.5943889 4286942090
0.53478777 0.78067946 -0.57711375 4286284930
0.5792942 0.75374925 -0.59329182 4286679688
-0.21903364 0.8493824 -0.57736218 4288647058
-0.11667338 0.80935264 -0.56938303 4287270541
-0.062375315 0.82640147 -0.58556461 4287137670
-0.015960069 0.83691669 -0.59255421 4287138185
0.014031928 0.82900167 -0.59288275 4287664272
0.080443844 0.83942759 -0.5784784 4286480766
0.44284606 0.82609558 -0.57773852 4286810247
0.48941517 0.82217038 -0.56954694 4286219136
-0.023924876 0.87470508 -0.57551634 4287202949
0.03314469 0.88186193 -0.55758834 4286678147
0.063742898 0.89335859 -0.56049979 4286941577
0.42219722 0.88405132 -0.56426096 4287140493
0.46926269 0.87604588 -0.58080959 4286613637
0.51747298 0.85998249 -0.56009138 4286613893
0.5629493 0.8796308 -0.56455147 4286811016
-0.23793478 0.91183662 -0.58922231 4288187533
-0.011335696 0.90743035 -0.57111526 4287073160
0.015398678 0.92505836 -0.56920421 4287202691
0.068950869 0.91677612 -0.5684678 4286678146
0.44194445 0.90375447 -0.56851184 4287402639
0.475743 0.92166561 -0.56437588 4287139980
0.51753217 0.90386558 -0.58583981 4286811271
0.58622038 0.90970886 -0.58493626 4287073929
-0.003888427 0.96994734 -0.5804621 4286876038
0.06126513 0.98327231 -0.5902099 4286811016
0.4686476 0.96328998 -0.59809667 4287336592
0.030440142 1.0299859 -0.56463027 4286612866
0.062723622 1.0546645 -0.55838186 4287008135
0.52953577 1.0623192 -0.5671491 4286680199
0.56374818 1.1138512 -0.57892025 4286483333
0.60256642 1.1427847 -0.56947434 4286810502
0.5718599 1.154796 -0.5962221 4286679687
0.61346889 1.1939894 -0.59717029 4286548100
-0.014894623 -3.9097137 -0.51601189 4286876298
0.017297618 -3.9299614 -0.52839673 4287271825
-0.021479417 -3.8572607 -0.51603001 4286810503
0.024489637 -3.8323691 -0.53500545 4287403154
0.068511195 -3.8464756 -0.54077256 4287666839
-0.019231293 -3.7841201 -0.51273334 4286744711
0.0098490873 -3.7744317 -0.52468342 4287206288
0.097532496 -3.7687626 -0.54169047 4286944140
0.1033943 -3.7513247 -0.53903538 4287863960
0.18543296 -3.7527213 -0.50687176 4287207053
0.32434112 -3.7680945 -0.51670039 4287600275
0.36899424 -3.7836695 -0.51821095 4287468688
0.42075744 -3.7628391 -0.5159716 4287403667
0.45522851 -3.7713165 -0.5111537 4287403409
-0.95081657 -3.7049372 -0.51247317 4281347373
-0.015369204 -3.7341368 -0.52217513 4286811018
0.075047471 -3.7189469 -0.51766622 4286943627
0.1309775 -3.7205148 -0.51500499 4287075468
0.18034835 -3.7220783 -0.54369622 4287141004
0.22088124 -3.7041574 -0.50778878 4287272589
0.39690858 -3.7055182 -0.52200329 4287206287
0.42844525 -3.7228262 -0.5059728 4287470230
0.50591618 -3.7379289 -0.50302291 4287468945
0.55911577 -3.7376645 -0.50497204 4287534481
-0.92256242 -3.6647215 -0.507388 4280821798
-0.013144564 -3.6779988 -0.52128768 4286876809
0.042927623 -3.6807256 -0.52867067 4286746504
0.07061632 -3.6651633 -0.51750398 4288127133
0.13563818 -3.6729076 -0.54444599 4286351236
0.18034095 -3.6706572 -0.53494638 4286942602
0.21764301 -3.6760755 -0.52826798 4287073674
0.27194899 -3.6689506 -0.53492403 4286546815
0.30903852 -3.6558661 -0.52997327 4286151545
0.38253349 -3.6550326 -0.52555096 4287469715
0.48833337 -3.6728568 -0.53545976 4287272334
0.61987424 -3.6576576 -0.51163054 4287403151
-0.92296845 -3.63305 -0.53774357 4281018921
-0.89098871 -3.6044779 -0.52030492 4280492833
-0.057455935 -3.6068816 -0.51260239 4285627509
-0.026629917 -3.6183372 -0.51926523 4286285441
0.0099981055 -3.641151 -0.52254164 4286746248
0.1741095 -3.6232755 -0.52086347 4287992981
0.215468 -3.6367486 -0.50852776 4290755001
0.32372811 -3.6251323 -0.52155012 4287073672
0.42503017 -3.6124449 -0.53428119 4287338126
0.46398455 -3.6323256 -0.52782977 4287337870
0.52280647 -3.612781 -0.53570211 4286284671
0.57106739 -3.6217461 -0.52707785 4287665553
0.66807991 -3.6198802 -0.51109457 4287534736
-0.88254821 -3.5625978 -0.53480881 4280690468
-0.075370044 -3.5736225 -0.51230627 4285758836
-0.030334041 -3.553093 -0.53338116 4285694586
0.030242601 -3.5711894 -0.52859354 4286482562
0.073333785 -3.5867023 -0.53375632 4287534483
0.10562178 -3.5664129 -0.52006888 4287336845
0.15363799 -3.5690668 -0.53909367 4286611840
0.23039795 -3.5875962 -0.51681954 4287272336
0.27628842 -3.5644875 -0.53628618 4286482050
0.33373031 -3.5769925 -0.52861679 4286613378
0.38167953 -3.5812159 -0.52674097 4287337613
0.42254645 -3.551789 -0.50428474 4287272077
0.4759388 -3.5696523 -0.52432156 4286021241
0.52935302 -3.5896709 -0.52788919 4286678659
0.57550544 -3.572238 -0.52644116 4288322714
0.61074799 -3.5559936 -0.52725828 4286087805
0.66555685 -3.561594 -0.52665126 4286218877
0.77342403 -3.5782208 -0.50385588 4287403407
-0.85142279 -3.5001957 -0.54621243 4280558369
-0.82002795 -3.5334821 -0.51981139 4280427297
-0.05279959 -3.5055702 -0.52822131 4286285186
-0.020428181 -3.5311949 -0.52303529 4286285184
0.030556131 -3.529789 -0.52175933 4287206030
0.078991018 -3.5359843 -0.5266881 4285560946
0.13639925 -3.5387561 -0.52648169 4288060569
0.17802167 -3.5156853 -0.5233323 4288653991
0.21576564 -3.5275278 -0.53137964 4286943884
0.25568908 -3.5478723 -0.53338033 4286877836
0.39187753 -3.5400457 -0.51655918 4287009162
0.52860546 -3.5045495 -0.52150273 4286811526
0.57904834 -3.5259292 -0.52927542 4287798165
0.62036103 -3.5155594 -0.51092839 4288587168
0.689726 -3.5163512 -0.51936775 4286942856
0.876248 -3.5190642 -0.5188303 4286941838
0.90788412 -3.5147347 -0.52931523 4286812301
-0.10054468 -3.4793487 -0.50327766 4285824885
-0.069585457 -3.4770548 -0.5224086 4286153598
-0.024344867 -3.4640195 -0.53300905 4286483077
0.022018874 -3.4840288 -0.53050661 4287534482
0.086920813 -3.4968932 -0.52663171 4290626756
0.13000549 -3.4672208 -0.51585895 4286745736
0.16278523 -3.4794967 -0.52452946 4287403925
0.31247622 -3.4847138 -0.52532321 4286548097
0.36961484 -3.4895236 -0.53733319 4286483333
0.47787997 -3.4725654 -0.51547748 4286942855
0.51207638 -3.4541104 -0.53433025 4286746502
0.59394377 -3.4663312 -0.53994602 4290558392
0.63853735 -3.4869287 -0.524746 4288587168
0.68579608 -3.4806869 -0.52468699 4287008906
0.72460365 -3.4800572 -0.51546812 4287272333
0.92894417 -3.4800317 -0.52480781 4287272597
-0.11626305 -3.4156928 -0.50273013 4285956216
-0.082910798 -3.4079866 -0.52993929 4286285441
-0.037214667 -3.4191253 -0.52605581 4285495667
0.030249327 -3.4220834 -0.53580374 4290626244
0.067165904 -3.4142485 -0.51388627 4283718998
0.13127308 -3.4296787 -0.52572995 4286416772
0.32727098 -3.4398646 -0.51910013 4286547586
0.42157453 -3.4233074 -0.50762904 4287206284
0.47191596 -3.4135621 -0.52758431 4286746502
0.59968281 -3.414614 -0.53352439 4290361013
0.61341417 -3.4239931 -0.51275766 4289639604
0.69512641 -3.4328504 -0.53033924 4287074955
0.71831053 -3.4241803 -0.52169549 4287074698
0.81863123 -3.4261646 -0.50820863 4287666322
0.87167335 -3.4191806 -0.51020932 4287403408
0.91726327 -3.4185846 -0.52054262 4286943629
-0.35694948 -3.3922164 -0.51449859 4280560420
-0.085846007 -3.3696632 -0.52495557 4287732889
0.025601944 -3.369545 -0.52860504 4285760124
0.090473697 -3.3901746 -0.52306992 4283652949
0.16446988 -3.3589072 -0.52236378 4290956233
0.34984994 -3.380589 -0.52147561 4285890169
0.4403325 -3.3818841 -0.52819794 4285627765
0.6222713 -3.3886542 -0.51997781 4290887872
0.72480607 -3.3631043 -0.52375817 4287074185
0.76180935 -3.377389 -0.51617247 4286679683
0.85218328 -3.3711622 -0.51884675 4287468686
0.92455578 -3.3618991 -0.52960622 4286943629
0.95945591 -3.3742883 -0.50829148 4287207317
-0.83885461 -3.3220685 -0.50153053 4280624162
-0.31214064 -3.3337941 -0.52965295 4280363042
-0.28535128 -3.3013391 -0.5270468 4279900696
-0.18066204 -3.3198984 -0.53226435 4286415743
-0.10308149 -3.3120308 -0.52804816 4287797655
-0.081945457 -3.32551 -0.51994038 4286745734
-0.02852435 -3.331533 -0.52458155 4286022013
0.022502223 -3.3255067 -0.52098542 4287665041
0.60871708 -3.3067584 -0.51992154 4290558394
0.72957224 -3.311836 -0.52621305 4287402893
0.93533438 -3.3330905 -0.51969481 4287206545
0.95221156 -3.3006377 -0.51048541 4287403924
-0.45425248 -3.2957463 -0.51872385 4284310623
-0.33442646 -3.2848961 -0.51039404 4279506964
-0.27771533 -3.276238 -0.51319712 4280165920
-0.21841007 -3.2566974 -0.53656214 4281612854
-0.18513609 -3.2744057 -0.50910372 4286218621
-0.12983483 -3.2741261 -0.51759005 4286680456
-0.073095687 -3.2752376 -0.51652396 4283323728
-0.023798317 -3.2818708 -0.51162022 4286218365
0.0033852905 -3.2691121 -0.53673172 4286610814
0.14910562 -3.269542 -0.53435427 4290886845
0.16138215 -3.2960758 -0.51906306 4290758854
0.57014638 -3.2926943 -0.54321492 4290557623
0.62722254 -3.289221 -0.50434613 4291349192
0.91817421 -3.2697344 -0.50439602 4287074704
0.96261716 -3.2901177 -0.52744234 4287141008
-0.363011 -3.2485363 -0.50422335 4279112978
-0.32150859 -3.2429674 -0.50790715 4280033305
-0.25405717 -3.2351689 -0.51368678 4280889385
-0.22954512 -3.2292137 -0.52420723 4280165663
-0.15707776 -3.2337413 -0.51783538 4287930012
-0.12882084 -3.2281325 -0.52336699 4286811015
-0.088987753 -3.2200482 -0.51492786 4285822836
-0.018615112 -3.2247887 -0.51984102 4282927944
0.152849 -3.2499294 -0.52584976 4291022282
0.57404089 -3.2380214 -0.53588158 4290689979
0.62726247 -3.2156708 -0.51264358 4291677645
0.93340343 -3.2154593 -0.51143909 4287140494
0.95921844 -3.2351143 -0.51637143 4287206032
-0.37129766 -3.18538 -0.51625592 4279442197
-0.21943317 -3.1741188 -0.52281576 4281811002
-0.16524157 -3.1765201 -0.5150879 4284772202
-0.12467739 -3.1649158 -0.52853549 4285364080
-0.066427343 -3.1769841 -0.5106774 4281743157
-0.035420891 -3.1744404 -0.54379946 4283521620
0.12410872 -3.1542089 -0.54948467 4291153610
0.91823864 -3.1861954 -0.52905035 4287206544
-0.47573745 -3.1111801 -0.5276897 4281679925
-0.36919078 -3.1487341 -0.53843874 4280296480
-0.21346453 -3.1232755 -0.50213379 4282602055
-0.17346469 -3.1330156 -0.52031934 4286022012
-0.12707198 -3.120913 -0.51757306 4285165675
-0.06959565 -3.1276071 -0.52110136 4282534468
0.70835006 -3.1081753 -0.54335719 4287601045
0.88901001 -3.1338539 -0.52129513 4287402641
0.93068737 -3.1197855 -0.53403717 4287337616
-0.49338198 -3.0675974 -0.53373599 4282336576
-0.43971592 -3.0613251 -0.50379556 4279243535
-0.39770758 -3.0667346 -0.50565457 4279376147
-0.17600045 -3.0878935 -0.52359986 4281810231
-0.085217535 -3.0924945 -0.53668761 4284179804
0.62605631 -3.07921 -0.54509747 4290427832
0.69420421 -3.0615454 -0.54101074 4287600273
-0.18219838 -3.020153 -0.53301048 4285889657
-0.11861742 -3.0389953 -0.53503478 4282995530
0.57860637 -3.0271354 -0.50667799 4290690233
0.61416167 -3.0363834 -0.51109517 4290362039
0.70167685 -3.0258546 -0.54390454 4287666837
0.91990566 -3.0225179 -0.53149337 4287337616
-0.45089316 -2.9955297 -0.54539829 4283717459
-0.42603213 -2.9952896 -0.54604185 4283652692
0.63061684 -2.9771335 -0.5042212 4290559418
0.67300212 -2.9787681 -0.52586836 4290165430
0.88427788 -2.9975066 -0.51047009 4287207055
0.63703114 -2.9292068 -0.50873423 4290824649
0.65446603 -2.9181764 -0.53267437 4290689979
0.8295725 -2.9245777 -0.50393891 4287600021
0.89517313 -2.9209297 -0.53065699 4287534995
0.90579081 -2.9385936 -0.51673907 4287469202
-0.59677398 -2.8701606 -0.53090203 4288587939
0.89095229 -2.8613682 -0.51100588 4287535252
-0.5865792 -2.8243523 -0.51969391 4288521635
0.84162337 -2.8351662 -0.50207311 4287469715
0.87472272 -2.8242838 -0.52475613 4287469458
0.86442465 -2.7500846 -0.50324678 4287403665
0.84588152 -2.7463703 -0.53547251 4287666583
0.83569837 -2.6542406 -0.50959849 4287337617
0.79557407 -2.62502 -0.52597976 4287600275
0.78622448 -2.5770378 -0.54255211 4287928728
0.81021059 -2.5747468 -0.51724362 4287731605
0.77977335 -2.5167022 -0.52632713 4287994521
0.80896068 -2.509028 -0.51501703 4287797655
0.77712381 -2.4654036 -0.51247728 4287797398
0.80045491 -2.4503496 -0.5277397 4287929240
0.74151427 -2.438005 -0.51347381 4287863703
0.77051389 -2.4297206 -0.51651204 4288125336
0.72936952 -2.3602757 -0.50786161 4288976795
0.79051518 -2.3717666 -0.52377748 4288060571
0.77975947 -2.3050046 -0.51251394 4287863448
0.69904262 -2.2624896 -0.53022003 4287929239
0.70673126 -2.2904518 -0.50043261 4288977310
-0.93200666 -2.2090471 -0.52206647 4288851115
0.75894976 -2.2480416 -0.50483292 4288125594
-0.88978088 -2.1642625 -0.51012987 4289244074
0.76728666 -2.0131431 -0.52325839 4287730062
-0.78771651 0.33436775 -0.50478154 4289042590
-0.80341858 0.43094134 -0.53691506 4288713879
-0.77310258 0.42269254 -0.50372195 4288122001
-0.2125085 0.44227421 -0.52180535 4288718243
-0.18417306 0.4373225 -0.5406397 4288784294
-0.86408973 0.47282758 -0.52352238 4288454559
-0.79544461 0.47742802 -0.52197158 4288059031
-0.23095286 0.49941456 -0.54107654 4290095531
-0.17478399 0.48600331 -0.53619885 4288060058
-0.14986825 0.48799402 -0.54462588 4287665043
0.31550777 0.48750031 -0.51867974 4287797909
0.49905661 0.47061706 -0.50013763 4287402895
-0.87819386 0.53548223 -0.5292905 4288325283
-0.82711005 0.52927315 -0.51383972 4287797914
-0.77455395 0.50952899 -0.51509613 4287600791
-0.22005855 0.53101194 -0.52672023 4289045411
-0.18109296 0.52112544 -0.51988286 4287731348
-0.14293723 0.52052808 -0.52143937 4287796886
0.33691141 0.53066325 -0.51898235 4287271824
0.45168781 0.53250384 -0.50869298 4287271568
-0.86836255 0.58898449 -0.53131199 4288126879
-0.82003963 0.58605981 -0.54291975 4287726216
-0.22295469 0.59079242 -0.52559525 4287599761
-0.17657633 0.57221192 -0.511289 4287861908
-0.13144287 0.57866174 -0.51816356 4287401869
0.067877136 0.57974231 -0.51479912 4286810250
0.11298511 0.59273362 -0.51686358 4286807676
0.33672109 0.59201825 -0.50139487 4285823861
0.3729004 0.58998919 -0.50431395 4287337873
0.43050402 0.58542979 -0.52138758 4287074443
0.45913631 0.57458603 -0.52459133 4287139211
-0.82749456 0.62716752 -0.53679949 4287596941
-0.23382366 0.6257478 -0.5353694 4287533454
-0.16653331 0.62686139 -0.52290255 4288058516
-0.12129971 0.62831151 -0.51532644 4287335563
0.083676063 0.62271935 -0.52162874 4286415743
0.37253338 0.62305802 -0.51236773 4286942344
0.41699094 0.62789178 -0.53438842 4287139723
0.47437206 0.61603642 -0.5446825 4287073929
0.58496535 0.62706292 -0.51422298 4286152831
0.60251296 0.63954031 -0.54932886 4286350211
-0.87519699 0.65603888 -0.52842987 4287594375
-0.16797495 0.66273558 -0.52655441 4287926415
-0.11140385 0.68655097 -0.53212982 4286613895
-0.089453265 0.67026514 -0.52970076 4287467148
0.055545598 0.66436636 -0.53275102 4287136902
0.1111724 0.67398924 -0.52613807 4286085750
0.38911515 0.65768957 -0.54751396 4287402892
0.5755707 0.67668509 -0.53173661 4286481794
-0.17332458 0.71569175 -0.52129626 4287991695
-0.12317625 0.73607862 -0.52951217 4287073674
-0.071986951 0.72804582 -0.51843929 4286875012
-0.0076134056 0.73913634 -0.53471249 4286283390
0.029688109 0.72002757 -0.54269123 4286218109
0.084464967 0.7358762 -0.53115875 4286217594
0.11023261 0.72761834 -0.54626757 4285955193
0.39124078 0.74326622 -0.54021537 4286744709
0.40437707 0.72072947 -0.5196749 4286614147
0.5360868 0.71145809 -0.51015586 4286021498
0.55528945 0.72232974 -0.54025805 4286351492
-0.15170708 0.7509073 -0.5442121 4288189845
-0.10974161 0.77034795 -0.52732468 4287467407
-0.073524818 0.78007287 -0.53314584 4287399816
-0.027834399 0.77033591 -0.52648205 4286414975
0.035526626 0.78646421 -0.53014314 4286480510
0.071339697 0.7582863 -0.512743 4285955448
0.43860626 0.77517211 -0.53085911 4286614149
0.46627253 0.76360095 -0.51256752 4285824377
0.5393846 0.76130211 -0.54511511 4286153856
-0.068620123 0.82787466 -0.53187531 4287137669
-0.031121606 0.82548887 -0.52524239 4286874753
0.026853982 0.83591294 -0.52506089 4286874754
0.070164643 0.82738668 -0.53180474 4286283643
0.11859737 0.82230425 -0.51235843 4286087034
0.42590567 0.82123208 -0.51649797 4287074186
0.4605802 0.82470495 -0.50609589 4286745991
0.51933169 0.82582772 -0.51948464 4286482051
-0.069236904 0.8760736 -0.52596015 4286876295
-0.026982261 0.87283045 -0.53065497 4287005570
0.025462482 0.86986983 -0.53337836 4286545276
0.080219224 0.85545671 -0.52500832 4286547843
0.47937363 0.86493164 -0.53716743 4286876295
0.55748445 0.85404658 -0.54285568 4286613637
-0.067001425 0.91927052 -0.52613866 4286875783
-0.010057961 0.92314464 -0.50933051 4286612865
0.026158443 0.92350185 -0.51163858 4286348923
0.063259326 0.92723835 -0.52399921 4286613122
0.10948808 0.9111647 -0.51679558 4286021242
0.47108361 0.92455137 -0.53563768 4287204749
0.52903706 0.94017899 -0.51049733 4286285184
-0.073561639 0.9706099 -0.51899755 4286809990
-0.021058217 0.9725132 -0.53091359 4286743938
0.019958293 0.9678089 -0.51903319 4286283644
0.065716609 0.9724561 -0.51806176 4286612608
0.10247187 0.95563257 -0.51467699 4286284158
0.47964525 0.95998466 -0.51380956 4286877066
0.55115563 0.97391093 -0.51774114 4286482560
-0.06707038 1.0173228 -0.51058286 4286678404
0.02368819 1.0134779 -0.51349002 4286217593
0.47666553 1.0169438 -0.54610604 4287074188
0.50744784 1.007707 -0.54334944 4286745992
0.55923736 1.0512813 -0.54946238 4286548100
-0.022860412 -3.900888 -0.49776155 4286547845
0.09132196 -3.8611214 -0.47039986 4287206032
0.14143369 -3.8832026 -0.46659639 4287139724
0.17191699 -3.8704896 -0.46532625 4287205002
-0.052599993 -3.8441181 -0.48875141 4286152829
-0.043150987 -3.8032627 -0.47894281 4286284159
0.017402867 -3.8253272 -0.47158623 4287008397
0.14571172 -3.8199069 -0.49134147 4287338639
0.17333001 -3.8269188 -0.49295306 4287403919
0.36985928 -3.8140283 -0.47187501 4287271564
0.029350545 -3.7532506 -0.47810093 4287272080
0.054181885 -3.7868319 -0.48830429 4287338644
0.13002232 -3.7707467 -0.47611842 4286878089
0.17519267 -3.7875204 -0.46633303 4287009162
0.23480354 -3.7516308 -0.47741619 4287009417
0.33163515 -3.769634 -0.46907932 4287468687
0.4147774 -3.7716863 -0.46156463 4287206286
0.46031398 -3.7808323 -0.47143227 4287337358
0.50367951 -3.7685046 -0.4567464 4287206028
0.58861488 -3.7525086 -0.45672083 4287403662
0.64922071 -3.7530692 -0.48928759 4287797139
0.66985059 -3.7530878 -0.47029242 4287664527
0.71295804 -3.7544632 -0.47528219 4287664526
-0.062753998 -3.7291625 -0.4678539 4286218366
-0.022588067 -3.7128866 -0.48924226 4286613893
0.01604172 -3.7289619 -0.46840343 4286745481
0.09071286 -3.7199383 -0.47720271 4288520096
0.13582477 -3.7305202 -0.47246307 4286878347
0.18194322 -3.7240052 -0.47381604 4287073930
0.22746108 -3.7204621 -0.47167119 4287008394
0.25949615 -3.7000279 -0.47165787 4286943624
0.31926587 -3.7230287 -0.48238182 4287468688
0.39883181 -3.7192438 -0.47632813 4287338385
0.43667963 -3.7345622 -0.46980247 4287141262
0.4808749 -3.712575 -0.47061256 4287009932
0.5298875 -3.7272885 -0.46689299 4287141005
0.57705009 -3.7249305 -0.46940064 4287272076
0.60244685 -3.721014 -0.47047168 4287271566
0.67447865 -3.7167027 -0.48551828 4287797140
0.74030936 -3.7347932 -0.46095499 4287663756
-0.061289329 -3.6687043 -0.47686675 4286153342
-0.017346557 -3.65732 -0.48401237 4286876296
0.043759555 -3.6718688 -0.48613623 4286680457
0.071292304 -3.6808488 -0.47764251 4286877835
0.1213465 -3.6860092 -0.47494239 4287535251
0.17537494 -3.6793075 -0.48308569 4287797653
0.23380142 -3.6751461 -0.47417691 4287075469
0.27669474 -3.6727874 -0.4828279 4287402894
0.31909394 -3.6781907 -0.47809204 4287796366
0.37313011 -3.6719923 -0.47963101 4287403923
0.4855133 -3.6792743 -0.49076813 4287337613
0.52770281 -3.6843739 -0.47506851 4287206540
0.57819426 -3.689199 -0.47540277 4287534479
0.63156343 -3.6800907 -0.46374714 4287206284
0.66887724 -3.6604118 -0.48069656 4287534480
-0.90642089 -3.6359513 -0.49326935 4280690211
-0.88078821 -3.605 -0.48947448 4280624160
-0.72072077 -3.6468344 -0.45490712 4279571985
-0.07174512 -3.6105764 -0.46916613 4286218878
-0.031882778 -3.6216552 -0.4729979 4286087035
0.010614847 -3.6268251 -0.47523925 4286680455
0.062358662 -3.6454828 -0.4625124 4290293431
0.13350357 -3.6311941 -0.49242663 4286284415
0.23678628 -3.6293077 -0.47282648 4288651936
0.27511063 -3.6142921 -0.46380869 4288257176
0.3421948 -3.6258259 -0.47755951 4287338640
0.36091223 -3.6252377 -0.48105681 4287402893
0.4236064 -3.6320097 -0.47895297 4287206283
0.4712781 -3.6309757 -0.47920302 4287337100
0.51421946 -3.6288643 -0.48070532 4287403406
0.57371855 -3.6169937 -0.46770087 4288914337
0.67399192 -3.6300769 -0.46788198 4287403151
0.72406727 -3.6415823 -0.47905073 4287338642
0.77499187 -3.6251373 -0.47779214 4287403664
0.84788889 -3.613081 -0.45955056 4287140241
-0.87435675 -3.569607 -0.4675231 4280624930
-0.82734251 -3.5726581 -0.47176754 4280098332
-0.78891838 -3.5674586 -0.47733289 4279901466
-0.72508532 -3.5974371 -0.4821595 4279966230
-0.069936611 -3.5866659 -0.48408675 4285889913
-0.034764096 -3.5828774 -0.48815808 4286547588
0.036416311 -3.5807383 -0.47759914 4286479996
0.092974603 -3.5722125 -0.48069119 4286284414
0.12749375 -3.5723667 -0.47472531 4287138695
0.18594162 -3.5660346 -0.47696117 4290627523
0.21763982 -3.5831034 -0.48008859 4287864217
0.2799955 -3.5755243 -0.48490417 4286943112
0.32272488 -3.5556824 -0.49131027 4287469455
0.3795346 -3.5832374 -0.47207648 4288058256
0.42644939 -3.5904727 -0.48786145 4287927439
0.53503084 -3.570133 -0.49340904 4287337869
0.62332493 -3.5603447 -0.47187933 4287862933
0.67022848 -3.5868316 -0.48008451 4287140492
0.71319753 -3.5722685 -0.47721595 4287862674
0.82460189 -3.596987 -0.4815082 4287468944
0.85521317 -3.5818603 -0.47039887 4287337874
-0.88272142 -3.546535 -0.48300076 4281018661
-0.83663106 -3.5329709 -0.4771353 4279967259
-0.72145021 -3.5257263 -0.47726279 4279506707
-0.65856171 -3.5097091 -0.47457042 4279111435
-0.10155712 -3.5313306 -0.4740805 4285363567
-0.076453872 -3.5189126 -0.47842181 4286219391
-0.016860517 -3.5278971 -0.47356749 4285430388
0.036837973 -3.525017 -0.47195968 4287467919
0.075861819 -3.5319951 -0.48602819 4287009678
0.10598694 -3.514215 -0.48279908 4287601303
0.16881725 -3.5367565 -0.48472989 4286154626
0.21260574 -3.5367994 -0.47476304 4288785319
0.25992274 -3.5230045 -0.45467576 4290557877
0.33700466 -3.5317893 -0.4783873 4287403406
0.38487965 -3.5234566 -0.46795261 4287206284
0.43021405 -3.5154192 -0.48513696 4287271820
0.5361709 -3.5228403 -0.4789966 4287338125
0.57906342 -3.5274444 -0.47954267 4287995288
0.62607712 -3.5326743 -0.49029452 4289310635
0.68926138 -3.51863 -0.48113894 4287403662
0.73637789 -3.5119431 -0.48309544 4287600784
0.86586148 -3.5373793 -0.46739864 4287206544
0.91280395 -3.5329142 -0.47917023 4287142293
-0.85144538 -3.4538369 -0.49312803 4280427294
-0.84815007 -3.4797943 -0.47780713 4280492577
-0.68578118 -3.4670973 -0.48401809 4279703058
-0.11750783 -3.4641581 -0.46530223 4285035371
-0.074873544 -3.4623661 -0.46401215 4284903273
-0.022935433 -3.4717007 -0.47601989 4285035630
0.023920763 -3.4775872 -0.4658187 4287863447
0.13333008 -3.4945397 -0.47340593 4284245087
0.20895608 -3.4879603 -0.46666101 4290758596
0.25347281 -3.4713287 -0.46871588 4290623670
0.40769947 -3.4714451 -0.45096871 4287206284
0.47248143 -3.4685783 -0.47710663 4287206540
0.52588058 -3.4574864 -0.46448162 4287272333
0.57139146 -3.4761143 -0.47817492 4287929238
0.61741048 -3.4765 -0.46342388 4288454301
0.68255532 -3.4911201 -0.45613453 4287403919
0.72514856 -3.4621491 -0.46602064 4287403663
0.78303838 -3.4782333 -0.47339606 4287731857
0.84320968 -3.4702101 -0.49298143 4287731856
0.86895847 -3.4725745 -0.48175263 4287337872
0.9280805 -3.465153 -0.47671586 4287207316
-0.74030918 -3.4157548 -0.45579815 4280098329
-0.66654694 -3.4037032 -0.4755719 4279571985
-0.62682831 -3.4220803 -0.46317992 4279373837
-0.46808812 -3.4342694 -0.46448964 4281808947
-0.37526307 -3.4044771 -0.49752015 4280295456
-0.072703987 -3.4188199 -0.45739603 4284309339
-0.032038372 -3.4225152 -0.46380392 4285954421
0.030134022 -3.4280419 -0.49513683 4290101438
0.070675075 -3.4409533 -0.47249049 4282862147
0.10338913 -3.4462223 -0.47768605 4283059527
0.20108677 -3.4193528 -0.47886318 4290955205
0.54678792 -3.4233198 -0.45989537 4287601815
0.5691883 -3.4269361 -0.49052668 4288981412
0.62691182 -3.4265549 -0.46999162 4289573294
0.77062809 -3.4045293 -0.46737519 4287403663
0.82129216 -3.4296906 -0.46882927 4287469200
0.86805546 -3.4235806 -0.47059584 4287666837
0.92549694 -3.4113767 -0.45702294 4287273623
-0.8482883 -3.3665645 -0.47140107 4280821027
-0.62853909 -3.353832 -0.46286285 4279112204
-0.46857017 -3.3766069 -0.47083884 4282270527
-0.43558261 -3.3761921 -0.46299979 4281217321
-0.33014923 -3.3617756 -0.46947533 4281284399
-0.11885621 -3.3772535 -0.46766752 4284771944
-0.073301941 -3.3669028 -0.46569762 4284178522
-0.034749269 -3.3798249 -0.47571072 4285955449
0.0068116933 -3.3786156 -0.47835767 4285233779
0.60892278 -3.3774774 -0.47687247 4290228914
0.73258978 -3.3789299 -0.47406992 4287403662
0.8251853 -3.3843586 -0.48419514 4287338384
0.86038452 -3.3789873 -0.47194877 4288061594
0.92948979 -3.3738225 -0.46552405 4287273110
0.95202845 -3.3732967 -0.46007955 4287405723
-0.85148609 -3.3104556 -0.45447662 4281215786
-0.65842247 -3.3485541 -0.48754257 4279440145
-0.63930899 -3.3336883 -0.47896126 4280162833
-0.47209439 -3.3434858 -0.47005355 4281809974
-0.40947551 -3.3333318 -0.46853226 4281678900
-0.36104614 -3.3460491 -0.47727671 4279639577
-0.32806116 -3.3257875 -0.47091746 4281876022
-0.12583485 -3.3176336 -0.46742743 4284574307
-0.076894984 -3.3231905 -0.47126424 4286152316
-0.021013778 -3.3080304 -0.48790175 4287930781
0.12421962 -3.3320334 -0.4765439 4290561217
0.15192322 -3.3074551 -0.47018215 4290626499
0.61787999 -3.308229 -0.47862273 4288981414
0.85428286 -3.322681 -0.45472455 4287009165
0.94433331 -3.3306684 -0.4655675 4287536795
0.97400552 -3.3024111 -0.45726314 4287404183
-0.8469218 -3.2884631 -0.47834805 4281084712
-0.63082856 -3.285105 -0.47886223 4279243022
-0.36545569 -3.2709191 -0.46956587 4284045655
-0.33245733 -3.2816236 -0.46953082 4279244051
-0.20112287 -3.2896137 -0.49951226 4286217595
-0.16326234 -3.2718158 -0.47069809 4284377442
-0.12356073 -3.2673962 -0.46686971 4284113758
-0.086701401 -3.2759118 -0.47951308 4284507748
-0.027628556 -3.2590618 -0.49623558 4281479472
0.15785398 -3.2662041 -0.48466709 4290758854
0.83135974 -3.256825 -0.47166359 4287272848
0.86587799 -3.2947049 -0.47906241 4289705908
0.92578417 -3.2937062 -0.45897013 4287207060
0.97384733 -3.2685201 -0.47366145 4287272595
-0.84705812 -3.2229223 -0.45998394 4281347625
-0.70249498 -3.2415447 -0.45022726 4280096786
-0.5961085 -3.2295182 -0.46205786 4279372811
-0.46713787 -3.2389369 -0.46752018 4280559396
-0.36754411 -3.2224023 -0.47427601 4288582543
-0.32951948 -3.2220929 -0.46595526 4284045652
-0.28554717 -3.2209313 -0.47034085 4279704856
-0.17288727 -3.2187762 -0.47022048 4284442723
-0.12614004 -3.2247901 -0.47379947 4286548357
-0.080317721 -3.2352047 -0.47661945 4280361250
-0.036006238 -3.229588 -0.48223424 4280823082
0.17526539 -3.2479947 -0.4526512 4290626498
0.61120188 -3.206207 -0.47872582 4287864218
0.86316311 -3.2292924 -0.47116858 4289442479
0.92671674 -3.2328019 -0.47989631 4287273108
0.9541598 -3.2133698 -0.48503447 4287141010
-0.84104836 -3.1963463 -0.47358412 4281282347
-0.47102386 -3.1947813 -0.46958697 4281283374
-0.36440861 -3.1923456 -0.47036976 4288384913
-0.33128554 -3.1579089 -0.45710331 4285229158
-0.2738694 -3.1791477 -0.46209481 4281678905
-0.22020344 -3.1842334 -0.46546549 4279441429
-0.18565965 -3.1765656 -0.47934619 4284113501
-0.12011862 -3.1678698 -0.45984843 4283915609
-0.074780464 -3.1827993 -0.48550296 4281216812
0.85669112 -3.1688223 -0.47333288 4289705394
0.95708328 -3.166579 -0.47583279 4287206546
-0.57501161 -3.1387236 -0.45869052 4279963661
-0.52393764 -3.1371179 -0.46655661 4279570191
-0.47810194 -3.1392343 -0.45771286 4280096276
-0.42050108 -3.1377943 -0.49832037 4278981134
-0.39708894 -3.1168799 -0.46356231 4288451475
-0.30310878 -3.1242657 -0.45427471 4287005573
-0.2824415 -3.1401243 -0.4817532 4284048220
-0.20868544 -3.1397431 -0.46460485 4285363311
-0.17420118 -3.1210973 -0.4764491 4284114272
-0.11249411 -3.1282122 -0.48613405 4283125066
0.84535766 -3.1226206 -0.48608774 4289771187
0.91820973 -3.1237049 -0.47671437 4287272081
0.96581954 -3.1068003 -0.46234575 4287338644
-0.60751009 -3.0637045 -0.47166008 4283980892
-0.57894355 -3.0524154 -0.45904487 4286019702
-0.52255195 -3.0585184 -0.46749654 4282459172
-0.49135813 -3.0672355 -0.49344939 4282198315
-0.44445926 -3.0888629 -0.4941608 4279046414
-0.31609643 -3.0893273 -0.46763277 4288187278
-0.25286812 -3.093646 -0.46459484 4282468419
-0.21062708 -3.0916085 -0.47869825 4283192655
-0.16719609 -3.0635331 -0.48661208 4280889131
-0.1156336 -3.0698647 -0.48507994 4288190104
-0.08748439 -3.0830598 -0.48446989 4281023279
0.59656328 -3.0935562 -0.46376899 4290228914
0.61473012 -3.061034 -0.45273331 4290758086
0.88868028 -3.0837526 -0.47680163 4287206803
0.94370133 -3.079097 -0.4655709 4287272596
-0.61572242 -3.0417116 -0.48195258 4287794060
-0.53620493 -3.035131 -0.46943775 4282262051
-0.49897325 -3.0194755 -0.47209373 4283247149
-0.22894889 -3.0434084 -0.46046773 4282139199
-0.16987632 -3.0197375 -0.47231948 4289572269
-0.10101723 -3.0296645 -0.49726146 4280362018
0.59320462 -3.0499635 -0.45806408 4290426035
0.79917401 -3.045094 -0.45512834 4287141008
0.82918996 -3.0239747 -0.4632031 4289836210
0.88559222 -3.027164 -0.46968102 4287272593
0.93575376 -3.0342209 -0.47925603 4287271824
-0.5667637 -2.9980209 -0.48647571 4287337103
-0.19534263 -2.9819345 -0.49094361 4285298287
0.60201597 -2.9788573 -0.45065978 4290823366
0.6582666 -2.9576159 -0.46008438 4290098355
0.85634911 -2.9726856 -0.4862991 4287337874
0.92140657 -2.9569373 -0.46807551 4287337873
0.62731659 -2.9091089 -0.4601554 4290295733
0.66246068 -2.9437902 -0.49646023 4290033845
0.83828503 -2.901449 -0.4832966 4287403410
0.86849242 -2.9066968 -0.46736267 4287141776
0.90837324 -2.9077387 -0.47149986 4287403154
0.57926577 -2.8614256 -0.46674192 4290889416
0.61874741 -2.8685937 -0.48049882 4290823882
0.74027437 -2.8963847 -0.45244947 4287601044
0.84267479 -2.8681064 -0.46129668 4287206801
0.86586851 -2.8981328 -0.49436405 4287338642
-0.51415712 -2.8372695 -0.46315113 4287471004
-0.49530804 -2.8260632 -0.48693115 4287734435
0.77081424 -2.8119206 -0.45884708 4290099383
0.83408988 -2.8345566 -0.46850216 4287534997
0.8828221 -2.8414526 -0.46640646 4287404179
-0.60377485 -2.7811279 -0.49828532 4288521379
-0.55100691 -2.7954581 -0.48284385 4287602587
-0.52639639 -2.791337 -0.47887331 4287602845
0.57782394 -2.7925785 -0.45042786 4290692808
0.77477109 -2.7608757 -0.46733353 4288849830
0.82140684 -2.7792861 -0.48399815 4287403666
0.87782675 -2.7769392 -0.4714435 4287272080
0.76582813 -2.7242916 -0.47658229 4287797399
0.82215095 -2.7373085 -0.47669521 4287140495
0.8691563 -2.7162943 -0.46846533 4286087293
0.72109705 -2.6846452 -0.46762246 4287995032
0.76124251 -2.6820784 -0.47071862 4288850087
0.83291847 -2.6731155 -0.46983886 4287140238
0.85469544 -2.6871881 -0.47842282 4287141007
0.73296154 -2.6180451 -0.47368085 4288258461
0.75275791 -2.6330414 -0.46727878 4289900979
0.81905639 -2.6199021 -0.48134294 4287337617
0.7441166 -2.5874577 -0.46887597 4287929240
0.79940546 -2.5897663 -0.48622078 4287470225
0.81961918 -2.5576947 -0.48870355 4287337872
0.73575473 -2.5260305 -0.45925945 4287797910
0.78823525 -2.5242426 -0.47175077 4288191643
0.82542491 -2.5234938 -0.47523203 4287271569
0.72997355 -2.4935622 -0.46725845 4287929498
0.77152926 -2.4631543 -0.48644969 4288584348
0.81080294 -2.4617486 -0.47439992 4287534484
0.63776761 -2.4470377 -0.45757782 4287995032
0.73447347 -2.4233675 -0.45388621 4289245102
0.77904534 -2.4236999 -0.46703935 4288059288
0.69236284 -2.3549032 -0.4661082 4290231738
0.74920881 -2.3769794 -0.49204695 4288715163
0.77902412 -2.3760271 -0.46747813 4287666583
0.80213493 -2.3960485 -0.45429426 4287600792
0.74357998 -2.329257 -0.470925 4288190617
0.76823443 -2.3233938 -0.46739697 4287732376
0.7308628 -2.2777634 -0.47461799 4288322202
0.76811719 -2.2653699 -0.45687205 4287863449
0.69960183 -2.229507 -0.48303619 4289042588
0.74851358 -2.2491176 -0.45424029 4287994781
0.76856965 -2.2085397 -0.45598531 4287994521
0.65907258 -2.1627307 -0.4799152 4288845981
-0.95102209 -2.1399813 -0.45237613 4285166447
-0.91047865 -2.1012275 -0.49425876 4288784294
0.71922576 -2.1208696 -0.46607414 4289376429
-0.94364208 -2.0814815 -0.46018678 4287141780
-0.84119987 -2.0812399 -0.48381025 4289244076
0.73096555 -2.0723503 -0.45953825 4288323484
-0.92029595 -2.034797 -0.46623212 4287732120
0.73274732 -2.0225923 -0.46554068 4287796369
0.7794522 -2.0097914 -0.47651079 4287795600
-0.92358363 -1.9915487 -0.45624858 4287995803
0.74271286 -1.9734378 -0.48165658 4287730063
0.7672435 -1.9852498 -0.48976818 4287795600
0.65031117 -1.9456264 -0.47278139 4287926927
0.73979717 -1.9103348 -0.46311373 4287927185
0.76110476 -1.9184314 -0.45465168 4287926929
0.74342626 -1.8756638 -0.45572895 4288124308
-1.0065391 0.092005014 -0.4762907 4287271053
-1.1025448 0.14769888 -0.46696585 4286944401
-1.0642631 0.12866044 -0.48315042 4287271569
-1.0701406 0.18679059 -0.48956302 4287139217
-1.0364668 0.17840536 -0.48210576 4286875782
-1.1339067 0.21602994 -0.47376806 4287074702
-1.084453 0.23468661 -0.48539332 4286745226
