# .PCD v0.7 - Point Cloud Data file format
VERSION 0.7
FIELDS x y z rgb
SIZE 4 4 4 4
TYPE F F F U
COUNT 1 1 1 1
WIDTH 1065
HEIGHT 1
VIEWPOINT 0 0 0 1 0 0 0
POINTS 1065
DATA ascii
0.26927677 -2.7257168 -0.26543885 4281016347
0.30487403 -2.7352087 -0.28011662 4282458915
0.43635163 -2.717896 -0.27485549 4279376149
0.48599735 -2.7131753 -0.26021039 4281812030
0.50698298 -2.7305708 -0.27079201 4281550654
0.57319194 -2.7419174 -0.2866987 4281024054
0.77140492 -2.7265806 -0.26729545 4281942597
0.81218106 -2.7397754 -0.28236178 4287669920
1.9175458 -2.7272587 -0.28948343 4287404949
-0.063979171 -2.6853199 -0.25494471 4281879362
-0.004448479 -2.6547034 -0.27417138 4283388748
0.23495513 -2.6850295 -0.26460379 4280687382
0.27152964 -2.6744592 -0.2710101 4280818460
0.3967191 -2.69942 -0.26389647 4279505682
0.42474782 -2.6777234 -0.28094816 4280364325
0.4543823 -2.6770711 -0.26950058 4281675822
0.7672382 -2.6796968 -0.28131798 4281089595
1.8952603 -2.6733394 -0.27317241 4288587426
1.9099939 -2.6976581 -0.27076337 4289180075
-0.065533087 -2.646975 -0.25316539 4285362029
-0.02625956 -2.6129441 -0.27121425 4284374100
0.22571726 -2.6344998 -0.26533845 4280556053
0.26031017 -2.6325355 -0.27026552 4282000935
0.44973382 -2.6264732 -0.26604605 4278915344
0.47492048 -2.6262233 -0.28550661 4280429354
0.53682512 -2.6320164 -0.2822209 4283389777
1.890273 -2.6278365 -0.27451017 4287404179
-0.13005403 -2.5582514 -0.28595221 4283392600
0.1967593 -2.5727522 -0.27967799 4281343262
0.21363096 -2.5734661 -0.26700747 4280884505
0.43821836 -2.5904 -0.2848562 4280496169
0.47980452 -2.5699801 -0.27255037 4283129174
0.52363968 -2.58214 -0.25303146 4283455313
1.8745472 -2.5707107 -0.2800374 4287864474
-0.12566429 -2.510541 -0.29797885 4283129942
0.203739 -2.5070848 -0.25866377 4282197796
0.43210882 -2.5230105 -0.29443529 4280955694
0.46264264 -2.5247114 -0.2727662 4282206276
1.8506182 -2.5243673 -0.27185273 4287272851
-0.059650373 -2.4766924 -0.25939074 4285821294
-0.016685901 -2.4579041 -0.26962221 4284508514
0.18319939 -2.4607794 -0.27210349 4281541152
0.42914483 -2.4755054 -0.28432411 4279572760
0.48291323 -2.4737742 -0.25638002 4284312163
1.8345213 -2.4747918 -0.27352014 4287404436
1.8542116 -2.4936881 -0.28440288 4290297017
-0.076028936 -2.4409568 -0.27479297 4284048221
-0.046731733 -2.4091132 -0.28379977 4283654490
0.43343371 -2.41626 -0.27415794 4280033827
0.46887165 -2.4291131 -0.26088321 4283193685
1.8144202 -2.4233725 -0.2816126 4287404436
-0.07457228 -2.3637216 -0.27684063 4283786588
-0.043160863 -2.3961637 -0.26458997 4284838251
0.41683549 -2.3669403 -0.28756881 4279243538
0.47080857 -2.3815293 -0.27254665 4283915609
1.7916393 -2.3620684 -0.29020673 4287402640
-0.071991771 -2.3261929 -0.28576279 4281021745
-0.035117015 -2.334506 -0.26608962 4280829238
0.42344677 -2.3173327 -0.2700175 4280098079
0.4518044 -2.3305452 -0.26652712 4281680447
1.7368485 -2.3074949 -0.25219643 4287931808
1.7825727 -2.3206801 -0.28188181 4287139725
-0.079665817 -2.2717721 -0.26811638 4282403908
0.42861548 -2.2823663 -0.28453922 4280493862
1.7444453 -2.2911837 -0.27290249 4287800736
1.7670135 -2.2836924 -0.27400404 4287796371
-0.082144096 -2.2202606 -0.26552567 4281812029
-0.034906171 -2.2176228 -0.26980028 4282403910
0.42798576 -2.2489741 -0.25887144 4279837984
1.7262843 -2.2163725 -0.2806325 4287075984
1.7572883 -2.2480488 -0.27660677 4287006087
-0.10116854 -2.1902122 -0.28486142 4281944128
-0.068862386 -2.1803656 -0.26786089 4280889646
-0.033616029 -2.1841519 -0.26410064 4279704866
1.6813657 -2.1589375 -0.28692836 4287931809
1.724774 -2.1729825 -0.26620987 4288124823
-0.11891854 -2.1159322 -0.26534539 4281942587
-0.065809861 -2.1316991 -0.27745137 4283655000
-0.035747588 -2.1240902 -0.27534169 4284710003
1.6850625 -2.1335747 -0.27341568 4286945169
1.7113249 -2.1249566 -0.26562604 4288717215
-0.1265759 -2.0741551 -0.29304636 4282468157
-0.073912881 -2.0792816 -0.28751442 4285629048
-0.034473412 -2.0730636 -0.28034312 4285496950
1.6824996 -2.0801892 -0.28038684 4287008137
1.7006785 -2.0870898 -0.25497124 4286809733
-0.28815877 -2.0088205 -0.29600215 4279706142
-0.13305171 -2.026232 -0.26868081 4281415727
-0.082082696 -2.035511 -0.28441134 4284970092
-0.036866371 -2.0333683 -0.27515653 4287076242
1.6402293 -2.0005071 -0.25314203 4288128931
1.6677325 -2.0186613 -0.28108233 4287073158
-0.26305771 -1.9835694 -0.28584066 4280166948
-0.12717396 -1.9720955 -0.28013349 4282204730
-0.07212887 -1.96697 -0.27108747 4286348407
1.634675 -1.9720889 -0.28185463 4286744195
1.665458 -1.9829656 -0.25829351 4288652706
-0.23149416 -1.9315486 -0.27918971 4281214240
-0.17805541 -1.906603 -0.28315312 4283578159
-0.11439594 -1.9178433 -0.26830953 4282928194
-0.09209428 -1.9230589 -0.27569512 4285163621
-0.018815015 -1.9353985 -0.28400186 4287802273
0.0027061924 -1.9303429 -0.29568982 4287082146
1.5898736 -1.9005425 -0.28265795 4288260261
1.6169295 -1.9208413 -0.27499831 4287009423
-0.21609062 -1.8896238 -0.27296013 4281934361
-0.19046287 -1.8660758 -0.26460487 4282334509
-0.13001068 -1.8756694 -0.27924296 4283651135
-0.089885399 -1.8925017 -0.26922148 4284048476
0.0012417836 -1.8657196 -0.25424504 4284376675
0.100339 -1.8643219 -0.29706013 4284313193
1.5908133 -1.8679297 -0.2660754 4286679688
1.6122669 -1.8793174 -0.28989944 4287142035
-0.21863842 -1.8468339 -0.28166884 4281213217
-0.19241314 -1.8357034 -0.2762706 4281681713
-0.13442476 -1.8209443 -0.26762182 4282344523
-0.098123945 -1.8498021 -0.2626608 4283852893
-0.010022312 -1.8299469 -0.28294063 4287927444
0.10721955 -1.8310928 -0.28147182 4283726958
1.5770023 -1.8253884 -0.27234596 4286615177
1.614025 -1.8309374 -0.2826204 4288391077
-0.22130212 -1.7620153 -0.27441317 4281218609
-0.16632712 -1.7885041 -0.26232079 4280374589
-0.14286593 -1.7883077 -0.26967233 4280968525
0.0049436074 -1.7762277 -0.28461629 4286949019
0.097457871 -1.7949493 -0.28116387 4285693569
0.11766584 -1.7819132 -0.28809234 4284382834
1.5461468 -1.7622306 -0.26858816 4286548873
1.5714995 -1.7686433 -0.27054754 4287601816
-0.32052243 -1.7230554 -0.2799482 4282659364
-0.29179966 -1.7109296 -0.28785294 4282532919
-0.21931094 -1.7308282 -0.27892238 4280034081
-0.18818478 -1.7179542 -0.28379279 4282730566
0.016530884 -1.7278459 -0.266644 4286162329
0.089028537 -1.7180643 -0.28657982 4282544735
0.10829715 -1.7137541 -0.28148142 4280965706
1.5399096 -1.7283574 -0.28475726 4286615178
1.5716246 -1.7298555 -0.26318961 4288587943
-0.26176956 -1.6603374 -0.25857019 4280441413
-0.20200182 -1.6723652 -0.29098412 4282934360
-0.17631236 -1.6794482 -0.27888098 4282141000
-0.00041469 -1.6831292 -0.2584357 4286688416
0.024207287 -1.6743053 -0.29037404 4285968795
0.085061364 -1.6822243 -0.27339533 4281038169
0.10632148 -1.6871731 -0.27362484 4281364055
1.5143343 -1.6773809 -0.27480248 4286812301
-0.36208603 -1.6029242 -0.2507171 4282335289
-0.26645389 -1.6344401 -0.2841129 4281881412
-0.22750461 -1.6270717 -0.26334241 4280436028
-0.19138527 -1.6136241 -0.26656884 4281351738
0.069895253 -1.6334491 -0.26162624 4280768837
1.4889653 -1.6355958 -0.29106227 4286812813
1.5077052 -1.6230415 -0.27341563 4287141266
-0.26167217 -1.5925269 -0.28248477 4282279247
-0.22438903 -1.5646207 -0.27395311 4281293388
-0.19264314 -1.5669954 -0.27685219 4282151520
0.013075446 -1.5774664 -0.27002591 4286028687
0.062499557 -1.5864109 -0.2594195 4280368692
1.485128 -1.5829372 -0.26129451 4286549899
1.501925 -1.5834064 -0.28644449 4289046440
-0.41135797 -1.5263062 -0.26914215 4280240973
-0.21438599 -1.5423541 -0.26975358 4282148697
-0.19654405 -1.5301701 -0.27501747 4282611816
0.030965334 -1.5195822 -0.25954592 4283922283
0.053060714 -1.5207822 -0.26397318 4283135591
1.44859 -1.5044611 -0.28565088 4289112233
1.4607069 -1.5317354 -0.27360803 4287141266
-0.42557102 -1.4714308 -0.28579915 4280433213
-0.21558344 -1.4720091 -0.27314779 4281161802
-0.19739488 -1.4910557 -0.28122965 4282871654
-0.0011309711 -1.489768 -0.25097334 4284322688
0.017477857 -1.4860754 -0.27198741 4282488184
0.05291345 -1.4935391 -0.28623489 4283012991
1.4268548 -1.4750431 -0.26670879 4286484362
1.464417 -1.4852222 -0.28004977 4287861654
-0.6564523 -1.4406523 -0.25436208 4278849038
-0.62385416 -1.4217438 -0.27992985 4279112723
-0.56623942 -1.4079621 -0.28279805 4279244052
-0.46833792 -1.4124279 -0.27530804 4279115809
-0.44100785 -1.4254962 -0.26978639 4280040254
-0.21326521 -1.4210219 -0.26476106 4280298795
-0.19527437 -1.4356422 -0.26850569 4284248429
1.4246203 -1.4212646 -0.28403407 4287205771
1.4506952 -1.4466002 -0.27490762 4287203206
-0.83634382 -1.3806646 -0.26637247 4282534209
-0.65329051 -1.3857058 -0.25249118 4278914319
-0.62764859 -1.3734628 -0.271065 4279046673
-0.57945126 -1.3927289 -0.25424582 4279112466
-0.53808469 -1.3716862 -0.27879703 4279967262
-0.47527924 -1.3852042 -0.26662877 4279512112
-0.43701154 -1.3800257 -0.25895369 4280044109
-0.20787078 -1.3779562 -0.26458693 4280823597
-0.19205645 -1.3816133 -0.26851848 4281876804
1.44155 -1.3865733 -0.27503219 4286940287
-0.77222055 -1.3363328 -0.27378142 4281811519
-0.62808865 -1.3189818 -0.28525046 4279506966
-0.56991762 -1.3047668 -0.27839816 4279967002
-0.50823057 -1.3235729 -0.26867175 4280099362
-0.47814703 -1.3234562 -0.25752801 4283587933
-0.43543303 -1.3382276 -0.26573446 4279583561
-0.20389456 -1.3325992 -0.2783348 4280297514
-0.19395405 -1.312382 -0.25688133 4281155130
1.4309515 -1.3280369 -0.26988608 4286809215
-0.81528771 -1.2801245 -0.25119677 4282795331
-0.77169508 -1.2799011 -0.26935932 4282007097
-0.7248764 -1.2867469 -0.26550636 4281284662
-0.69154346 -1.2536817 -0.27540579 4281218099
-0.63560331 -1.2869524 -0.28240377 4280230691
-0.52838981 -1.2709479 -0.2606357 4281481010
-0.46940899 -1.2737927 -0.25473011 4283587932
-0.22625265 -1.2774405 -0.259058 4280231454
-0.19483744 -1.2710553 -0.28651845 4280824367
1.39595 -1.2583239 -0.27895689 4286679168
1.4131458 -1.2885768 -0.26795715 4288122765
-0.75253677 -1.2003132 -0.28421015 4281215016
-0.7250936 -1.2431041 -0.27165776 4281218095
-0.69703209 -1.2239575 -0.25188839 4280624164
-0.62612414 -1.2158234 -0.28338277 4281547580
-0.46263281 -1.2369244 -0.26201043 4281480499
-0.43671414 -1.2048562 -0.2539162 4282203970
-0.19227938 -1.2182872 -0.2730284 4281086768
1.3825946 -1.2334509 -0.26481569 4286678656
-0.77362007 -1.1952189 -0.28509009 4282069042
-0.72417164 -1.1786671 -0.27291521 4281545007
-0.68734747 -1.1775265 -0.25799292 4281149994
-0.6244157 -1.170514 -0.26577911 4280229918
-0.59938776 -1.15216 -0.28061691 4280560685
-0.20269579 -1.1610442 -0.28590176 4282073922
-0.18275252 -1.1767268 -0.26826715 4282139457
1.3475901 -1.1796625 -0.25139305 4286351485
1.3737454 -1.1858277 -0.27332246 4286744193
-0.71985888 -1.1115625 -0.26317954 4281674281
-0.67716146 -1.1313446 -0.25660479 4281415218
-0.61720657 -1.1301253 -0.28348404 4281612600
-0.21492705 -1.1226395 -0.28106403 4282073150
-0.18879741 -1.1130037 -0.25508842 4282731846
1.3404617 -1.1307533 -0.28777027 4286547584
1.3551536 -1.130492 -0.26519638 4287335559
-0.70056605 -1.0700078 -0.26481414 4280950815
-0.69549859 -1.0712103 -0.28422099 4280624673
-0.63117456 -1.086597 -0.26818687 4281347888
-0.57720745 -1.0750914 -0.272838 4280560426
-0.30750883 -1.0838177 -0.29056162 4281084462
-0.25878149 -1.0687492 -0.2776041 4280558886
-0.21186435 -1.0770948 -0.2679452 4280887848
-0.18926057 -1.0792139 -0.25889707 4283652182
1.3216364 -1.0776093 -0.27898893 4286547840
-0.66866273 -1.0242428 -0.27534804 4280165153
-0.63385206 -1.0015485 -0.27326915 4280428583
-0.59088683 -1.0054128 -0.26366746 4280494888
-0.36237413 -1.0071026 -0.27481818 4281083179
-0.27221012 -1.0255587 -0.28744894 4280822314
-0.2412513 -1.0263656 -0.27235153 4279769623
1.2910073 -1.0217335 -0.27805415 4286285438
1.3154597 -1.0346854 -0.26663783 4286941315
-0.61639738 -0.9794637 -0.28061318 4280494632
-0.58450711 -0.97845101 -0.27005419 4280298280
-0.31368554 -0.98704737 -0.28219247 4285232497
-0.28556266 -0.97268134 -0.26070878 4281019948
1.2793928 -0.96981508 -0.27418661 4287005826
1.3008889 -0.99518961 -0.27814764 4286285695
-0.61054111 -0.91219157 -0.26473886 4281283120
-0.56060159 -0.9203701 -0.26632035 4280166951
-0.54677665 -0.92649883 -0.26798022 4280429096
-0.3162666 -0.93396318 -0.2639277 4284574312
-0.29830229 -0.9327023 -0.25312677 4285033834
1.243253 -0.92519903 -0.257954 4286351231
1.2631795 -0.93330026 -0.26478761 4287137154
-0.52785802 -0.88866103 -0.25643274 4280232487
-0.40822667 -0.87288964 -0.29698449 4284370515
-0.36138442 -0.86286902 -0.27478179 4284771950
-0.33526057 -0.87938428 -0.25791317 4282074438
1.2417785 -0.8766439 -0.28898638 4286940289
1.2516582 -0.89307755 -0.26110384 4286220158
-0.83175629 -0.81608939 -0.27478054 4280624165
-0.37651056 -0.82269597 -0.28525645 4286482311
-0.34647369 -0.80891407 -0.26753694 4286813070
1.2307571 -0.83316547 -0.28200215 4286809728
1.2541074 -0.82621878 -0.26450673 4286613376
-0.80935234 -0.77869034 -0.25562569 4281282606
-0.79918683 -0.76546335 -0.25963742 4283126352
-0.41591918 -0.76156533 -0.28926671 4282467395
-0.37510851 -0.76867288 -0.27267522 4285757047
1.1785812 -0.76872176 -0.28662851 4286613894
1.208416 -0.79514462 -0.2871089 4286744194
-0.75936496 -0.72557968 -0.25015813 4282467394
-0.54740429 -0.70116889 -0.25094548 4280689958
-0.41885486 -0.7269097 -0.27405521 4281217844
-0.37207851 -0.72921371 -0.26502439 4287136900
1.1317263 -0.72829741 -0.27786696 4286746508
1.1613172 -0.74910545 -0.28311023 4286810246
-0.90236217 -0.67228377 -0.28354326 4280361245
-0.85854787 -0.67068434 -0.28047967 4279835415
-0.82436776 -0.66185397 -0.28745043 4279177487
-0.76962405 -0.65786576 -0.28478393 4280164124
-0.72063136 -0.65783101 -0.27859718 4279967259
-0.69350237 -0.65551341 -0.28304049 4281676337
-0.52238363 -0.67966807 -0.2518518 4280756264
-0.42389458 -0.67197448 -0.26985788 4282399807
-0.3841638 -0.67983973 -0.26884294 4287069311
1.0954092 -0.67322475 -0.26840299 4286746508
1.1021414 -0.69902271 -0.26972845 4287270542
-0.91669661 -0.6054107 -0.27602473 4280623649
-0.85723972 -0.64475608 -0.28771526 4280098588
-0.82354993 -0.62307054 -0.27050525 4279835416
-0.78155613 -0.63537842 -0.26269624 4279111695
-0.7235465 -0.63217378 -0.26673087 4279769369
-0.67144459 -0.6145612 -0.2660417 4280229150
-0.6361208 -0.60695493 -0.26577994 4281283634
-0.47542995 -0.61976779 -0.26685637 4280887854
-0.44348896 -0.64005971 -0.28515074 4283454034
-0.39502963 -0.6298275 -0.25243312 4281281066
1.0740639 -0.62701815 -0.26526797 4286680972
-0.95729136 -0.57871413 -0.29756978 4280361244
-0.85604429 -0.57348043 -0.27577898 4282138169
-0.81874013 -0.56968582 -0.26293519 4281086251
-0.79616636 -0.5896737 -0.25231493 4280954149
-0.63160574 -0.59281206 -0.29533339 4281611060
-0.56808281 -0.5547027 -0.27688605 4280229919
-0.50995791 -0.57863188 -0.26469129 4280295200
-0.48355928 -0.58580202 -0.28249502 4281216304
1.0438869 -0.57122529 -0.26401061 4287728011
1.0731275 -0.57206506 -0.26605684 4286809989
1.1667503 -0.5810914 -0.26830509 4287598222
1.2003082 -0.56682497 -0.27850315 4287401099
-0.95856977 -0.52777237 -0.29755762 4280362015
-0.91839486 -0.5097208 -0.26282656 4280754721
-0.87037396 -0.53328359 -0.27307361 4282071092
-0.82259333 -0.50589067 -0.2516709 4281545522
-0.52750057 -0.54526603 -0.2707808 4280032799
1.0748287 -0.54469216 -0.2782647 4286545276
1.1321558 -0.53688288 -0.27612296 4286414717
1.1673608 -0.51624501 -0.27049237 4286283901
1.2205448 -0.5175162 -0.28308541 4286940804
1.2821262 -0.52506185 -0.26282769 4287204746
-1.2651455 -0.46143726 -0.27008539 4285560436
-1.2183537 -0.45784491 -0.26925302 4284376420
-1.1734849 -0.45276016 -0.25122806 4280032799
-0.91979289 -0.47240192 -0.28895721 4280822566
-0.88786185 -0.48131773 -0.2632302 4281084453
1.1306587 -0.49685693 -0.29264751 4286147691
1.1778259 -0.48785841 -0.27543643 4285558123
1.2091327 -0.47881225 -0.27506414 4286088319
1.2726763 -0.46362188 -0.29095164 4285888885
1.345585 -0.46807674 -0.27906847 4287008651
1.3873243 -0.45887643 -0.27753302 4286942600
1.4033009 -0.46817836 -0.25005841 4286811528
-1.2842172 -0.42566958 -0.26492867 4286284672
-1.2308898 -0.41589531 -0.28698236 4284242522
-1.1899276 -0.44468108 -0.27697259 4282861384
-0.91666889 -0.44977894 -0.29743445 4281677619
-0.86839098 -0.42348123 -0.27550235 4281544752
1.1647522 -0.40886003 -0.28751203 4288917936
1.2908648 -0.43539792 -0.27641776 4285495156
1.3312427 -0.42787811 -0.28645414 4285955192
1.3820425 -0.41897973 -0.27831855 4286349949
-1.2610259 -0.3914814 -0.26899272 4284640106
-1.2279844 -0.36472178 -0.26364526 4282664775
-1.1793857 -0.3927651 -0.28576925 4281217325
-1.130864 -0.35505152 -0.29981384 4280560166
-1.015703 -0.39588711 -0.25596637 4280031771
-0.9266206 -0.3836329 -0.27313992 4279836956
-0.8779977 -0.36929131 -0.283703 4280887336
-0.84720397 -0.38290346 -0.27373296 4279769366
1.2487925 -0.38754708 -0.28074041 4285824122
1.2852292 -0.39960489 -0.2731545 4286416771
1.344041 -0.39427716 -0.26950374 4285889656
1.3801355 -0.38022017 -0.29276413 4286022011
1.4339765 -0.38060462 -0.27658162 4286152828
1.4668374 -0.36207312 -0.27654776 4286349437
-1.1777717 -0.33727321 -0.2623167 4280625190
-1.125689 -0.32461101 -0.27313063 4280230176
-1.0762215 -0.30284971 -0.26426172 4279771421
1.1121385 -0.31338835 -0.28177696 4287536797
1.2116323 -0.32136118 -0.27870399 4286348672
1.3820459 -0.31607586 -0.28033933 4286680970
1.4268216 -0.32842568 -0.26382083 4285560947
1.4526914 -0.3367888 -0.27382961 4285497207
-1.0745121 -0.28524786 -0.25671226 4280426527
-1.0292341 -0.26823568 -0.28013062 4281677876
1.0921867 -0.26491666 -0.29529142 4285693307
1.199713 -0.29458535 -0.26733828 4288323747
1.3744007 -0.2771897 -0.27064788 4286418054
1.4420393 -0.26550901 -0.28080666 4286349437
-1.0013928 -0.22918084 -0.26563266 4279769366
-0.9941287 -0.22980218 -0.26883617 4279310611
1.0964892 -0.22432499 -0.29631627 4285561204
1.1724546 -0.23113757 -0.27729711 4286874245
1.3442082 -0.21800774 -0.2722823 4286615946
1.3974893 -0.20903653 -0.27458596 4285628537
1.429594 -0.22343133 -0.2779969 4286283646
-0.97981203 -0.1825029 -0.28238037 4281282092
1.1433786 -0.17447805 -0.28433073 4285294185
1.1637744 -0.17981564 -0.25875697 4288452767
1.2969569 -0.16460457 -0.28316671 4287010961
1.3328565 -0.17225344 -0.28182995 4287400838
1.3841243 -0.16933946 -0.26965445 4286153084
1.4066925 -0.16782491 -0.27911162 4286152828
-1.0147923 -0.10773283 -0.2774694 4279571731
-0.98766243 -0.1419892 -0.27843249 4279965719
1.1811085 -0.11223686 -0.29893088 4286482304
1.2308134 -0.11783702 -0.260847 4287462743
1.2523712 -0.12211645 -0.27028346 4286615945
1.3411741 -0.12487569 -0.27980128 4286680457
1.3819563 -0.12308647 -0.27300507 4285891451
1.4123617 -0.1357587 -0.26058888 4286218107
-1.1009077 -0.05818155 -0.28281942 4280364070
-1.085596 -0.062124267 -0.28400177 4279835416
-1.046945 -0.076847516 -0.2837266 4280098075
1.1133857 -0.067233935 -0.28138223 4285887317
1.1760962 -0.092743322 -0.26012331 4287201631
1.218551 -0.078713663 -0.27928063 4287132237
1.3302771 -0.074810825 -0.28126621 4286286724
1.3697587 -0.078390695 -0.27105689 4286548100
-1.1076665 -0.04810619 -0.28409427 4282201142
-1.0722809 -0.033382043 -0.28425574 4283321417
-1.02195 -0.010329391 -0.28316277 4284442467
1.0928512 -0.011505253 -0.28991729 4286543438
1.1326237 -0.031455629 -0.25159365 4287594836
1.1725371 -0.018374013 -0.27397686 4286870869
1.2241076 -0.033090621 -0.28285006 4286280804
1.2633166 -0.024966314 -0.26830223 4285427043
1.3265824 -0.028435767 -0.26584557 4285956476
-0.98680496 0.029417081 -0.27920756 4283982944
1.0900697 0.035650894 -0.28792939 4285818942
1.1325607 0.025121205 -0.28939143 4286475580
1.165517 0.018523157 -0.26180413 4286670884
-0.99204373 0.090860516 -0.26422316 4283126865
1.1229836 0.066016629 -0.28254345 4286344259
-1.0203567 0.13369888 -0.26090664 4283257935
-0.99143636 0.11921469 -0.27674162 4285824121
1.1356342 0.12650962 -0.28727245 4285228624
1.1572123 0.13334891 -0.26724988 4285885758
-1.0334108 0.17878607 -0.26799348 4282469960
1.1668096 0.18106148 -0.26131332 4285099362
1.2280761 0.18358402 -0.26430678 4285165154
-1.0571959 0.21982145 -0.27574202 4281810745
1.1936512 0.22489023 -0.2703087 4285099107
1.2131678 0.23627946 -0.27029604 4285560431
1.2529787 0.20351174 -0.28267235 4285557348
-1.0686871 0.26071253 -0.27152479 4284310368
1.1963117 0.28460389 -0.29407799 4285693301
1.2243292 0.27323735 -0.26652861 4285692016
-1.1143188 0.33165461 -0.25887108 4282336318
-1.0819556 0.30450287 -0.27522847 4284704613
1.1723509 0.32492107 -0.28681898 4285890424
1.2318974 0.32553694 -0.27454031 4285626481
1.250581 0.30501121 -0.27227184 4285430383
-1.1661342 0.38737187 -0.26053414 4280954923
-1.1320928 0.36913714 -0.2774508 4280495142
1.1365553 0.38506898 -0.27807724 4286612866
1.1818397 0.38776761 -0.28185597 4285825144
1.2161655 0.36694717 -0.27379388 4285561202
-1.218082 0.44504082 -0.27031401 4278586373
-1.1706626 0.42334664 -0.27654043 4278850060
1.1345617 0.43354252 -0.26792204 4285693302
1.1810411 0.42315534 -0.27785364 4286151544
1.2034434 0.41554445 -0.28439504 4285889655
-1.2321527 0.45010906 -0.26733738 4278651398
-1.1659019 0.47765535 -0.25596422 4278586631
-1.1392955 0.47745603 -0.27782524 4278586632
1.0905675 0.48586673 -0.258856 4286152570
1.1318319 0.47961599 -0.27177843 4285889911
1.1635091 0.45978242 -0.28223741 4285889911
-1.1156055 0.50524628 -0.27954882 4278718474
-1.0738527 0.53100365 -0.29268959 4278915596
-1.0493715 0.54669243 -0.25528884 4279046413
1.093163 0.53217316 -0.28212649 4286152313
1.118832 0.52208012 -0.28323895 4285955191
-1.0635638 0.56801116 -0.2848818 4278850316
-1.0181031 0.57436758 -0.28298128 4278981390
1.0437564 0.57308602 -0.25393754 4286155138
1.0850775 0.58208549 -0.28046811 4285955703
1.1150877 0.56084138 -0.26739445 4285758838
-1.0166057 0.63060951 -0.2829383 4279112974
0.99748391 0.64906001 -0.2761181 4287336591
1.0345476 0.62488198 -0.2656413 4285824373
1.0808229 0.62896132 -0.26217353 4286087033
1.1023741 0.60706335 -0.26742652 4285889911
-1.0634735 0.67742795 -0.28361037 4279112463
-1.0297772 0.66562414 -0.27154723 4278981645
0.94038296 0.69202554 -0.25957039 4287273111
0.98307586 0.68784899 -0.27756342 4286812300
1.0164073 0.66738701 -0.28431559 4286019954
1.0769144 0.65182918 -0.29648462 4286152055
-1.068592 0.720474 -0.26724228 4278981132
-1.0450408 0.70601553 -0.25940052 4279112717
-0.95720828 0.72350478 -0.28523713 4280561189
-0.9192493 0.7080878 -0.27112448 4281020461
-0.89811146 0.71861094 -0.26026571 4287404951
0.89490265 0.74468744 -0.2959379 4286878865
0.92426574 0.72238165 -0.27068645 4286615948
0.97009063 0.71534359 -0.28915608 4286877836
-1.1147206 0.78937489 -0.27305335 4279243533
-1.0828125 0.77160746 -0.27842018 4279112718
-1.0390602 0.78525859 -0.25800338 4279639832
-0.92524165 0.76086223 -0.26359028 4287074701
0.88573515 0.78366798 -0.29373416 4286943374
0.93598336 0.7814377 -0.27594566 4286615179
-1.1583095 0.83280349 -0.2601684 4279047438
-1.1048104 0.81602198 -0.27878329 4279310353
-1.0843443 0.80843931 -0.25839144 4279507734
-0.96315098 0.81474268 -0.27320564 4285824118
0.88721842 0.84028006 -0.26538634 4286615179
0.91955674 0.82217759 -0.26866755 4286483848
-1.1563359 0.85185707 -0.27330926 4279244304
-1.0597811 0.88203484 -0.26569992 4286087036
-1.0250328 0.86855853 -0.28475776 4285167216
0.84367639 0.88499671 -0.28564286 4286747279
0.87168705 0.87335056 -0.25999424 4286484105
-1.1061131 0.91827595 -0.27593219 4285887861
-1.074154 0.91384333 -0.26916674 4285035885
0.69484913 0.92522359 -0.26353234 4285562231
0.71995366 0.94259781 -0.26777402 4285627767
0.75334102 0.94008589 -0.29632586 4285626484
0.83893418 0.93611932 -0.26273531 4286418569
0.85660756 0.92662537 -0.28519469 4286745994
-1.1200364 0.98795235 -0.27257711 4284114785
-1.0741296 0.99384987 -0.27983963 4284246116
-1.0376061 0.9980967 -0.27439424 4284180321
-0.27184412 0.99667287 -0.26364291 4287797657
0.72447211 0.97907591 -0.28161708 4285956990
0.7835266 0.96952254 -0.28264329 4285759612
0.8226521 0.98305762 -0.27253479 4286155396
-1.1314125 1.0064706 -0.27395695 4283852639
-1.0253236 1.0191187 -0.28357428 4283718227
-0.27424833 1.0166982 -0.26485264 4287271568
0.73304844 1.0268377 -0.27597964 4286218622
0.77019101 1.0129 -0.28192303 4285496696
0.81053078 1.0339878 -0.25516757 4285891711
-1.0117934 1.0572709 -0.28517556 4284310106
-0.98321724 1.0732793 -0.27144146 4284573791
-0.9476307 1.0914383 -0.29867923 4284967009
-0.22833422 1.072443 -0.26577476 4287729040
0.74244356 1.0811417 -0.26261982 4286153857
0.76695746 1.0859196 -0.26772898 4285958017
-0.95332074 1.1020589 -0.25294188 4284967521
-0.92585218 1.1093526 -0.26901311 4284244826
-0.88891345 1.1271348 -0.26648235 4284704093
-0.83946055 1.1393944 -0.27782041 4284440921
-0.79167646 1.1495103 -0.28561452 4284504661
-0.3322981 1.1308993 -0.25361344 4285561204
-0.25464097 1.120872 -0.26352271 4285294696
-0.21825357 1.1265825 -0.26414776 4288057748
0.65700483 1.1296055 -0.29874215 4287005317
0.73333704 1.1257733 -0.26570833 4287006600
0.76051015 1.1277947 -0.26383346 4286417028
-0.85426831 1.1559746 -0.27591038 4285294689
-0.81734961 1.1717275 -0.26331845 4285163360
-0.78481829 1.1764095 -0.28586847 4284376157
-0.7434895 1.1902938 -0.28563762 4284506972
-0.35762778 1.1964681 -0.25904745 4285561204
-0.27622509 1.1711085 -0.28041759 4285623659
0.69578516 1.1903141 -0.26378447 4286349952
0.72480333 1.1685407 -0.26755679 4286350723
0.76338363 1.1736462 -0.2608164 4285957760
-0.71523416 1.2070928 -0.28795791 4284703579
-0.67365372 1.2113442 -0.28480357 4284704094
-0.64436615 1.2336972 -0.28420573 4284770145
-0.59730065 1.225106 -0.25933206 4284638046
-0.37874556 1.2362525 -0.2732394 4285560177
-0.31296325 1.2286013 -0.28326508 4285556582
-0.27373201 1.2286754 -0.27871841 4285099887
0.68829477 1.2226435 -0.27406162 4286217594
0.71984327 1.2196357 -0.28274462 4285825660
0.7579304 1.2124534 -0.26963887 4285891967
-0.61761177 1.2587774 -0.29524785 4284901730
-0.56869179 1.2763357 -0.28868109 4285033316
-0.52384436 1.287485 -0.27900991 4284836193
-0.46547532 1.2916523 -0.27756068 4284637789
-0.42246431 1.2773488 -0.28020519 4284243287
-0.39164749 1.2645975 -0.29022673 4285756785
-0.33254865 1.2858568 -0.26630709 4285359202
-0.28209352 1.2961335 -0.29482692 4284968558
-0.21917942 1.2751472 -0.28628641 4286282363
0.07465145 1.2955892 -0.27181053 4279112462
0.11318842 1.2833096 -0.26833862 4279310098
0.17523158 1.2894242 -0.27803025 4279506708
0.21556015 1.2897431 -0.27152568 4279507476
0.63768262 1.28106 -0.28164586 4286016618
0.6867066 1.278493 -0.26693454 4286545277
0.71189249 1.2614182 -0.26609999 4285694585
-0.52102095 1.3122551 -0.2523886 4285558890
-0.46518993 1.3102262 -0.27299309 4285230181
-0.43037844 1.3103542 -0.29453641 4284702553
-0.3747341 1.3146461 -0.2765573 4283846219
-0.31413403 1.3418323 -0.27914134 4286678662
-0.2676912 1.3106999 -0.26268765 4284902254
-0.21532147 1.3317834 -0.27585348 4286348157
0.023119183 1.3339998 -0.26752701 4279573784
0.067831591 1.3211147 -0.26642993 4279046927
0.13452426 1.3199028 -0.26499522 4279243793
0.17284033 1.3074467 -0.27447242 4279244563
0.24217665 1.3101542 -0.27263349 4279639319
0.28015754 1.3321965 -0.26927936 4279573271
0.69317985 1.3246796 -0.27583626 4285296489
0.71750188 1.3441653 -0.27973711 4285889908
-0.30538359 1.3679444 -0.2692329 4286482823
-0.27475691 1.3849872 -0.26590419 4286022272
-0.20890327 1.3868277 -0.28953803 4286151291
-0.17668653 1.3900563 -0.26060316 4284441186
-0.0041749664 1.3812895 -0.27267945 4281284917
0.024838431 1.3949776 -0.27425343 4281153072
0.05046773 1.3648517 -0.26943713 4280362529
0.24141009 1.3869346 -0.26650432 4281740589
0.2770043 1.3649106 -0.2867035 4280757545
0.70759773 1.374148 -0.27949384 4285230440
-0.2230984 1.4011015 -0.25258884 4283786080
-0.16522007 1.4059274 -0.29528761 4282862668
-0.1228644 1.436496 -0.2629644 4286218367
-0.070410162 1.438328 -0.2595889 4285757302
-0.01292222 1.4316497 -0.26833957 4282008642
0.27903214 1.4417084 -0.27240562 4283455315
0.31280726 1.4193324 -0.286019 4283059019
0.73384762 1.4164013 -0.27572495 4284837989
-0.11182246 1.4741377 -0.26143745 4286481539
-0.069452293 1.4677417 -0.28171697 4285625973
-0.03686576 1.4626617 -0.28254876 4284640105
0.0058465428 1.45349 -0.26707619 4283390295
0.2884649 1.4679232 -0.2789855 4284902246
0.33101261 1.4779253 -0.26088023 4284900970
0.73050451 1.4870772 -0.27972764 4285360999
-0.034221057 1.5166668 -0.28239816 4285295469
0.29055566 1.5164964 -0.28374332 4284508004
0.3266781 1.5344336 -0.28349194 4285559151
0.36046973 1.5372038 -0.28212807 4285825403
0.74148893 1.5182976 -0.27818459 4285100136
0.75451505 1.5239611 -0.25709027 4284969574
0.294321 1.5834537 -0.27297604 4284701790
0.32204324 1.5759895 -0.26737285 4286153597
0.35885412 1.5682837 -0.26569146 4286152316
0.74340594 1.570075 -0.2722674 4285427050
0.75133169 1.5873814 -0.25013942 4285362541
0.33897436 1.6196768 -0.28190556 4286876550
0.37429965 1.6192131 -0.2850554 4286350721
0.74124527 1.6243335 -0.28445882 4285493100
0.76607209 1.6303197 -0.28988117 4284838247
0.34502095 1.6702585 -0.27615869 4286810244
0.38706282 1.6568643 -0.27912584 4286679941
0.41896468 1.6649761 -0.28561661 4286547331
0.47047243 1.6860397 -0.27573696 4286810502
0.5109129 1.6748371 -0.28450567 4286416513
0.74772632 1.6553944 -0.28106058 4285623659
0.75741005 1.6736492 -0.26091069 4285165930
0.84212488 1.69066 -0.27579623 4285362279
0.36901087 1.7017671 -0.2870346 4287333508
0.43336192 1.7061845 -0.26662031 4286811272
0.46403611 1.7144897 -0.26854292 4286613893
0.52204037 1.711946 -0.26633662 4286678916
0.56688768 1.7028828 -0.2857103 4285956989
0.62422913 1.7252383 -0.29193479 4285825402
0.74208272 1.7223513 -0.27309403 4285429103
0.84395862 1.7257061 -0.26928723 4285753703
0.8729887 1.7238286 -0.27345374 4285691246
0.53909934 1.7682815 -0.27242967 4286483589
0.56955534 1.7658639 -0.2714296 4287137927
0.61783803 1.7838697 -0.27348384 4286546561
0.69192952 1.7750069 -0.26698735 4285824633
0.72512323 1.7660934 -0.27837601 4285627510
0.87270689 1.7843347 -0.27649376 4285625454
0.62624115 1.8029655 -0.26418301 4286614918
0.66502029 1.8151344 -0.28706571 4286284927
0.71511412 1.8267651 -0.26982623 4286217595
0.76593733 1.8251978 -0.27314413 4285758323
0.82521212 1.8375013 -0.26222926 4285756783
0.87438232 1.8355356 -0.26419008 4285756269
0.69746912 1.8508719 -0.25988156 4286089342
0.78084183 1.8747011 -0.26427186 4285690991
0.81549293 1.8560864 -0.25587854 4285364332
0.85076112 1.8640791 -0.26550782 4285298795
0.42030838 -3.329391 -0.24164273 4279045387
0.43185198 -3.2696579 -0.23499167 4278981389
0.4578062 -3.2670255 -0.23510808 4279441938
1.0240269 -3.2667997 -0.24889591 4286876296
1.0814505 -3.2750676 -0.23980823 4288128161
1.1174266 -3.2770317 -0.23200271 4288524203
1.1740465 -3.2752914 -0.23697472 4288259749
0.399822 -3.2462835 -0.22802991 4278980620
0.42808414 -3.2361329 -0.23876403 4279047695
0.6173414 -3.2233217 -0.23913476 4280562220
0.98443228 -3.2426152 -0.22740129 4286679173
1.0211229 -3.2217023 -0.21192703 4288128418
1.0680624 -3.2358274 -0.20638861 4289707194
1.1224394 -3.2330656 -0.20983261 4288918446
1.1706309 -3.2258234 -0.21333155 4289050034
1.2402356 -3.2332025 -0.22117366 4288523433
1.2690526 -3.223603 -0.23505366 4288391592
1.3397657 -3.2125018 -0.23942782 4285823091
1.4176769 -3.2098851 -0.24884292 4287535763
0.38621736 -3.1788018 -0.22587328 4278915339
0.44587877 -3.1999083 -0.21463466 4279441173
0.454474 -3.1560206 -0.23811674 4280035360
0.58524704 -3.193697 -0.23791239 4280363040
0.71479583 -3.1757529 -0.22749178 4285168497
0.96628982 -3.1768367 -0.23124747 4288788142
1.0171914 -3.1598105 -0.23942122 4291678937
1.0989277 -3.1830099 -0.20771258 4289706937
1.1280261 -3.185689 -0.22703274 4289969851
1.1936371 -3.1604757 -0.24541898 4289577659
1.2471381 -3.1555128 -0.24782996 4289774010
1.2967477 -3.1582074 -0.23794702 4289243559
1.3138084 -3.1761463 -0.22783685 4289969332
1.3653512 -3.1784825 -0.24334043 4288720290
1.4205918 -3.1656318 -0.24074849 4289048488
1.4671154 -3.1816158 -0.22010393 4288913053
1.5108373 -3.1674795 -0.22675094 4288254097
1.5699024 -3.1696503 -0.22655194 4288188304
1.6084315 -3.1638298 -0.22029044 4288057487
0.38112414 -3.1204412 -0.2154668 4278980875
0.42403367 -3.1339409 -0.22950268 4279113488
0.5514819 -3.1141014 -0.23269427 4280693546
0.69224143 -3.1194282 -0.21773788 4286285438
0.73736244 -3.1160243 -0.23701778 4286350209
0.75787425 -3.1006713 -0.24047026 4285694586
0.93028623 -3.1054978 -0.22082829 4288981416
0.9902069 -3.1143765 -0.22529167 4289050034
1.0183574 -3.1176641 -0.22660834 4288852654
1.0677477 -3.1153278 -0.23730445 4289969341
1.1397637 -3.1096683 -0.23601273 4289575607
1.1705612 -3.1399958 -0.22723079 4290495937
1.2233585 -3.1331396 -0.22388624 4290692547
1.2720758 -3.1330712 -0.23217024 4290297786
1.3342963 -3.1299627 -0.21872397 4288782233
1.3722996 -3.1154013 -0.22761194 4290625209
1.4261141 -3.1212509 -0.22334188 4289377453
1.4749702 -3.1159952 -0.2299477 4289376939
1.5273004 -3.1212778 -0.23408994 4289902257
1.5709163 -3.1243439 -0.22246929 4288523428
1.6400812 -3.1383724 -0.22704396 4287991951
1.6948862 -3.121413 -0.23377292 4287926927
0.36196813 -3.0618081 -0.22444451 4279309071
0.42964473 -3.0848951 -0.20709556 4279640088
0.53984427 -3.0905969 -0.24006814 4280693289
0.55422997 -3.0570178 -0.21224181 4280429600
0.66885835 -3.0846293 -0.24407417 4287402639
0.72600347 -3.069952 -0.23838398 4286942859
0.75940633 -3.0744202 -0.24196339 4286417025
0.9282428 -3.0894189 -0.21923959 4288983983
0.99888235 -3.087225 -0.20146425 4289247925
1.0699589 -3.0627198 -0.22215791 4292205023
1.127344 -3.0681484 -0.21435027 4290889929
1.1701484 -3.0760908 -0.23035514 4290758085
1.2192411 -3.0677357 -0.23202837 4290100666
1.2718096 -3.0764318 -0.22674441 4291019456
1.3267548 -3.0861592 -0.23327121 4290427830
1.3780878 -3.0658131 -0.23311672 4290559416
1.4330952 -3.0778995 -0.22125226 4290231991
1.4813666 -3.0722256 -0.22228241 4290429114
1.5452789 -3.0772302 -0.23361886 4290756026
1.5808992 -3.0698445 -0.22758885 4290559931
1.6277817 -3.0743334 -0.22982675 4288654756
1.7316942 -3.0692012 -0.23055692 4287861646
1.8094758 -3.0632355 -0.20027149 4287862161
0.33099267 -3.0093794 -0.24171467 4280162069
0.3851918 -3.0243077 -0.23883554 4279506193
0.41878742 -3.0307517 -0.24144433 4279113746
0.52250606 -3.0107584 -0.2303043 4280626979
0.55760974 -3.0016026 -0.20797689 4279968284
0.64528686 -3.006536 -0.22961634 4286088315
0.66680074 -3.0268908 -0.23801643 4286875523
0.73652291 -3.0180454 -0.21999456 4287600787
0.75487447 -3.0228727 -0.24332772 4287073414
0.8771199 -3.0041847 -0.23599803 4288327849
0.92409301 -3.0316842 -0.21733209 4289115570
0.96431506 -3.0288177 -0.22544691 4289050547
1.0081854 -3.030349 -0.23908229 4289247925
1.0733933 -3.0326939 -0.22502249 4291022029
1.121678 -3.0364335 -0.22247398 4292271076
1.1840516 -3.0343621 -0.21218947 4290101180
1.2235305 -3.0441022 -0.21594505 4290889669
1.2550552 -3.0081067 -0.24081799 4292660947
1.3314034 -3.0302143 -0.20069383 4290756795
1.3623301 -3.0116775 -0.2053472 4290822074
1.4212334 -3.0165238 -0.21741049 4290559416
1.4766985 -3.0214016 -0.21741968 4290429882
1.5223007 -3.0387545 -0.22796178 4290233787
1.5736933 -3.0252829 -0.21265188 4291414213
1.6163266 -3.0222492 -0.22738613 4290430397
1.655387 -3.0297375 -0.22178577 4288654499
1.7012388 -3.0024769 -0.2392274 4288523683
1.8279201 -3.036443 -0.20166808 4287796625
0.34035408 -2.9698298 -0.23213233 4279243278
0.37542379 -2.9823647 -0.22689544 4279571986
0.43047422 -2.9812827 -0.22547564 4279507478
0.49522191 -2.9664612 -0.23848489 4280693800
0.53634799 -2.9761019 -0.20776437 4280166172
0.65034473 -2.9631152 -0.22005314 4284709233
0.72137666 -2.9633865 -0.22639576 4287075212
0.75130975 -2.9649727 -0.2305994 4285036142
0.85798836 -2.9857895 -0.21768911 4287206030
0.91738832 -2.99892 -0.20600845 4288918961
1.2955778 -2.9940512 -0.24506721 4294106847
1.3204972 -2.9618781 -0.22141127 4294303202
1.3936672 -2.9615335 -0.23683703 4294239975
1.4284189 -2.9737585 -0.22917598 4294634475
1.4859581 -2.9838412 -0.22460906 4291084220
1.5160322 -2.9803433 -0.22237575 4291347137
1.5704405 -2.9824445 -0.24049792 4291675590
1.6701775 -2.9795232 -0.2120274 4289509551
1.7196752 -2.9729066 -0.20709905 4289575345
1.7724892 -2.9712937 -0.21713024 4289181100
1.8264472 -2.977653 -0.20523143 4290495934
1.8711724 -2.9757149 -0.22613373 4288323740
0.32195652 -2.9369621 -0.21805185 4280360729
0.36509538 -2.9165258 -0.22357835 4280096789
0.43386191 -2.9221251 -0.21346167 4279112463
0.47354481 -2.9205172 -0.21987379 4280101151
0.61614412 -2.915925 -0.22303624 4285890939
0.68064654 -2.9443874 -0.24467808 4285628791
0.72903597 -2.9247882 -0.22933114 4283916377
0.75132847 -2.9422708 -0.24142104 4288127386
0.83572173 -2.911582 -0.22897948 4287734427
0.87449765 -2.9330106 -0.21775714 4288983983
1.6156454 -2.9298019 -0.22586378 4290887356
1.8199505 -2.9190855 -0.2095024 4288589477
1.9246025 -2.9111819 -0.23028272 4287206032
1.9809903 -2.9085083 -0.24166986 4287404182
2.0080497 -2.9214933 -0.24928881 4287601561
0.31524473 -2.8847957 -0.2217872 4280753434
0.39787272 -2.8771157 -0.21623799 4279900950
0.43164811 -2.8665504 -0.21980909 4279310098
0.46754447 -2.8681564 -0.22098607 4279442451
0.52175903 -2.8577013 -0.24655445 4279969053
0.58811063 -2.8811092 -0.2292296 4283648588
0.61347425 -2.8739676 -0.22057514 4286284157
0.67911661 -2.8641739 -0.21562718 4285956732
0.72742623 -2.8754735 -0.22912394 4281875771
0.77563322 -2.8707376 -0.24124269 4283651928
0.80780411 -2.8849385 -0.22186649 4286415490
0.8613013 -2.8654346 -0.23291209 4288656047
1.8762728 -2.8868558 -0.22341798 4289180844
1.918251 -2.8693552 -0.22432476 4289049262
1.9596771 -2.8724177 -0.20905419 4287601561
0.22521377 -2.8085294 -0.22426434 4283910735
0.27733114 -2.8206904 -0.22659044 4281212699
0.30647737 -2.8327408 -0.2284697 4281082909
0.38166064 -2.8242784 -0.24160671 4281474078
0.42869115 -2.8225651 -0.21402289 4278849291
0.47095221 -2.824574 -0.22471742 4280232737
0.59057724 -2.8195512 -0.22581041 4285492589
0.60591269 -2.8421061 -0.24426101 4288514958
0.71554601 -2.8160996 -0.21638587 4279704601
0.76715684 -2.8132896 -0.22804199 4282732624
0.80658436 -2.8323846 -0.2145932 4287603098
1.920233 -2.8231473 -0.22726178 4289641400
1.9684737 -2.8279083 -0.234981 4287272597
-0.13792075 -2.7500129 -0.22732158 4282603341
-0.070227437 -2.7724774 -0.22175403 4280430634
-0.016563898 -2.7891762 -0.22622779 4284310367
0.23314305 -2.7763488 -0.23430587 4282265910
0.26899773 -2.785404 -0.21130896 4281212441
0.3260299 -2.7606916 -0.23586771 4282524454
0.36883715 -2.7816582 -0.21842602 4282788139
0.42537481 -2.7615805 -0.2184353 4279112976
0.48208523 -2.7787354 -0.2280388 4281153327
0.51587754 -2.7964017 -0.24520232 4281220408
0.64335132 -2.7795134 -0.22109398 4285958528
0.69586205 -2.7573922 -0.22816053 4279245079
0.73417675 -2.7775588 -0.2119711 4280626476
0.76031893 -2.7753823 -0.22284581 4283719262
0.81899494 -2.7827015 -0.23570116 4288261544
1.9251021 -2.778507 -0.23174891 4289050032
-0.10782146 -2.7188225 -0.21007876 4283127631
-0.07124643 -2.7423823 -0.23330092 4281353273
-0.038716123 -2.7179122 -0.22582304 4284968043
0.26805025 -2.7284396 -0.22616145 4281278493
0.32431585 -2.7263885 -0.22961834 4282984233
0.4307043 -2.7137542 -0.21342677 4279046926
0.46994156 -2.7123299 -0.23822504 4282929739
0.56633925 -2.7156351 -0.24927585 4286938238
0.62816179 -2.7276056 -0.20905808 4285561205
0.72460902 -2.7372298 -0.20936513 4281481787
0.76486987 -2.7206466 -0.23456 4282601807
1.8935893 -2.7272525 -0.2069072 4288195492
1.9089769 -2.7186353 -0.2247826 4287601302
-0.08443772 -2.6711698 -0.23496446 4283192652
0.23268704 -2.6687012 -0.22639722 4280950811
0.26914322 -2.6820631 -0.21948349 4281869601
0.30907345 -2.6899259 -0.22147489 4282656294
0.44922987 -2.6556923 -0.20827709 4282733646
0.48140717 -2.6753139 -0.21225455 4280167460
0.67147845 -2.6559966 -0.20476872 4279837217
1.8843566 -2.6621997 -0.21472281 4287338387
1.9039526 -2.6668758 -0.22917682 4288587426
-0.1110673 -2.6219206 -0.23062497 4283720538
-0.083978415 -2.6161852 -0.22062221 4284047962
-0.034040812 -2.619843 -0.22838214 4281550912
0.21590129 -2.6374853 -0.22339499 4280555795
0.25516284 -2.6174731 -0.21872461 4282263844
0.41606757 -2.6497526 -0.20777221 4280230689
0.462457 -2.617981 -0.2477167 4281020200
0.52920854 -2.63535 -0.2357067 4281615421
0.70196599 -2.6382508 -0.20163248 4281088828
1.8687749 -2.6170483 -0.2238604 4287404692
-0.11620136 -2.5669301 -0.21759783 4283852378
-0.074438825 -2.5628386 -0.24591002 4283719771
-0.04530286 -2.5800095 -0.22506249 4283261528
0.19490188 -2.5839787 -0.2294282 4281475361
0.22076289 -2.581398 -0.22167744 4282198053
0.44388136 -2.5516181 -0.20999098 4283586382
0.46005508 -2.5531116 -0.23754218 4283387729
0.51715899 -2.5906439 -0.20773187 4281548853
1.8670125 -2.5703619 -0.22234397 4287535509
-0.13569649 -2.5290792 -0.22951175 4282800204
-0.071022592 -2.5230713 -0.2282525 4283852634
-0.047838479 -2.5291269 -0.21278058 4284840818
0.19021431 -2.5203047 -0.22573844 4282069039
0.22166373 -2.5272446 -0.22640966 4281212443
0.47586566 -2.528434 -0.235401 4284775024
0.51152837 -2.5167048 -0.22965531 4285360230
1.8434895 -2.5231588 -0.23529734 4288719782
1.8597956 -2.5338321 -0.2226873 4286746250
-0.073003501 -2.4946856 -0.21879894 4284968038
0.19524369 -2.4751401 -0.23147179 4281146907
0.20675796 -2.468575 -0.20753743 4280358417
0.47516894 -2.4768674 -0.2277813 4283128146
0.50774521 -2.4773543 -0.2028589 4285755245
1.8360174 -2.4735253 -0.21900155 4287733145
-0.080656461 -2.4410875 -0.23595743 4282073920
0.1850256 -2.429563 -0.20195469 4280162322
0.44155294 -2.4094644 -0.23196799 4283652184
0.46469188 -2.421401 -0.22921251 4285102963
1.7895797 -2.4035652 -0.22460687 4287997601
1.8220701 -2.4268615 -0.22913146 4287535509
-0.068049543 -2.3785484 -0.20189625 4285755501
-0.034674633 -2.3684402 -0.22515094 4283392085
0.18386841 -2.3950822 -0.20249881 4281738276
0.44336581 -2.3737915 -0.23100221 4282730568
0.46483198 -2.3858156 -0.22404671 4284310367
1.791468 -2.3775015 -0.22793078 4287864731
1.8140863 -2.3688316 -0.21740118 4288521633
-0.10782314 -2.3380249 -0.21306795 4284838503
-0.094074771 -2.3144011 -0.2191782 4280825135
-0.039054126 -2.3187814 -0.21455796 4284248681
0.43281934 -2.3167074 -0.21212777 4284839533
1.7452976 -2.3150153 -0.23706934 4287469204
1.775503 -2.3312221 -0.22273323 4287205519
-0.067854747 -2.2755923 -0.21808814 4281088308
-0.031110007 -2.2620087 -0.22799413 4280166181
0.43126258 -2.2830966 -0.21267839 4283523160
0.45040557 -2.2556372 -0.20802282 4284576360
1.7292945 -2.2745974 -0.23885277 4287468947
1.7765381 -2.2679439 -0.23169628 4288521377
-0.10407472 -2.231863 -0.21085864 4283851867
-0.06176402 -2.2209809 -0.22898133 4281416247
-0.029668264 -2.2451866 -0.24016926 4279705634
0.43386436 -2.234463 -0.23321283 4284444264
1.6914387 -2.2287776 -0.21368127 4287072137
1.7246851 -2.2316551 -0.23615611 4287008139
1.7527709 -2.2272749 -0.23473859 4288586913
-0.10800687 -2.1595712 -0.24036197 4280692264
-0.081342489 -2.1726336 -0.21527477 4279770654
1.6895688 -2.1875708 -0.20759588 4287006344
1.7206903 -2.1743448 -0.23080151 4287273364
-0.1058085 -2.1348248 -0.21799782 4279244311
-0.07013651 -2.126091 -0.23548166 4279311127
-0.038334433 -2.1351318 -0.21371162 4281022774
1.6947343 -2.1049218 -0.21825346 4287469717
1.709456 -2.1354585 -0.21323708 4287336846
-0.11236355 -2.0662785 -0.22714168 4280033565
-0.07574375 -2.0874581 -0.21646354 4280298533
-0.033394132 -2.0868373 -0.23007119 4281485888
1.6866639 -2.0762596 -0.22592044 4288126363
1.7046391 -2.073766 -0.2135424 4286615690
-0.12218454 -2.0210817 -0.22557545 4280494630
-0.087628745 -2.0296278 -0.22028223 4280494374
-0.015516866 -2.0298994 -0.23211373 4282016854
1.639257 -2.0114398 -0.21230699 4288782754
1.6651297 -2.0276499 -0.23524918 4287074445
-0.25867313 -1.9682238 -0.23174414 4280430634
-0.23272447 -1.9604814 -0.22988407 4281276693
-0.11328467 -1.9673326 -0.2235077 4280560935
-0.084221654 -1.975075 -0.23217864 4281812031
-0.038289949 -1.9903529 -0.22721991 4283197537
1.6351109 -1.9725957 -0.22201689 4287468690
-0.25090164 -1.9141614 -0.23234527 4279905061
-0.22396505 -1.9123821 -0.22196543 4282200875
-0.12540793 -1.9110657 -0.22572829 4280693288
-0.08775308 -1.9273779 -0.21563913 4282139710
-0.012258051 -1.9145317 -0.22862792 4281022006
1.5960846 -1.908795 -0.22504631 4288326054
1.6132765 -1.9252381 -0.2136787 4286745737
-0.20930304 -1.8642148 -0.23314372 4281737757
-0.18404257 -1.8686665 -0.22394076 4282726963
-0.11983588 -1.8706338 -0.21643399 4281942844
-0.091068976 -1.8802137 -0.2272048 4283521364
-0.010105683 -1.8810389 -0.23651059 4285109384
0.00018764473 -1.8514991 -0.23611659 4282208331
0.14442128 -1.8583815 -0.22913398 4282129704
1.5868802 -1.8604479 -0.22335258 4287601303
1.6038997 -1.8707936 -0.24129641 4286616203
-0.18661042 -1.8293279 -0.2119803 4281484854
-0.12842371 -1.8217012 -0.20825896 4281096262
-0.091685005 -1.8497148 -0.2139639 4282668881
-0.01288982 -1.8282782 -0.23116179 4286225038
1.576647 -1.8251486 -0.22179767 4287009422
-0.31693375 -1.7601725 -0.20604199 4282461470
-0.1719922 -1.7941115 -0.21699713 4280567860
-0.1393165 -1.7857842 -0.21725658 4281296206
-0.010215575 -1.773001 -0.23750547 4287147422
0.0053352341 -1.7589282 -0.23073593 4286754459
0.12048446 -1.7682052 -0.24214265 4282733134
1.5603591 -1.7760826 -0.22898196 4286943886
-0.31751493 -1.7499238 -0.23167318 4282592801
-0.29464906 -1.7351327 -0.23650494 4282006316
-0.21846671 -1.7277393 -0.22471015 4282143051
-0.19038956 -1.7333852 -0.22619915 4283384122
0.0060495287 -1.7142245 -0.21412663 4284255868
0.085378744 -1.7113432 -0.23300014 4281691991
0.11091526 -1.7205429 -0.23000044 4281951059
1.5276723 -1.7164788 -0.22461104 4286615178
1.572626 -1.7249149 -0.22740753 4288784809
-0.26544768 -1.6715431 -0.2230321 4280900163
-0.20389718 -1.6774328 -0.22391574 4280563505
-0.19302927 -1.6670206 -0.21432227 4282272070
0.019378878 -1.677758 -0.23682499 4285904544
0.074652977 -1.6795505 -0.22234932 4281362770
0.10454015 -1.6818283 -0.21017662 4282411093
1.5184886 -1.6748281 -0.21842873 4287141267
1.5527771 -1.6899619 -0.23072997 4288850346
-0.36528492 -1.62985 -0.23380841 4282463792
-0.34296376 -1.6030678 -0.21251908 4284432690
-0.24381746 -1.608829 -0.22712453 4280639046
-0.18408716 -1.607445 -0.21554905 4283197019
-0.00098288991 -1.6100852 -0.22328922 4285105792
0.010096424 -1.6306589 -0.221809 4283134566
0.0615061 -1.6194874 -0.21638651 4284184426
1.4919499 -1.6119446 -0.22028355 4286615435
1.5068293 -1.6309941 -0.24606402 4288850344
-0.41710362 -1.5800606 -0.22615385 4278853924
-0.38654494 -1.5697067 -0.21121599 4281412647
-0.34013349 -1.5661402 -0.22322312 4283578926
-0.21549626 -1.5619313 -0.22254027 4281822810
-0.19560459 -1.5780323 -0.23350072 4280369207
-0.00037792744 -1.5650845 -0.21641499 4285369732
0.040009968 -1.5632635 -0.21364832 4285502599
0.058498308 -1.5784107 -0.22998545 4282211406
1.482885 -1.5723391 -0.2253311 4287141523
-0.61698341 -1.5071793 -0.2061116 4279707168
-0.47240466 -1.5065062 -0.20943555 4279451714
-0.43399087 -1.5232658 -0.2101475 4279326553
-0.38243559 -1.5312566 -0.22316809 4281941562
-0.31848779 -1.5216354 -0.21385343 4283841327
-0.21622956 -1.5352389 -0.22876275 4281230674
-0.19486339 -1.5236747 -0.22749861 4283395686
0.035927229 -1.5157337 -0.2145422 4281558613
0.063789293 -1.5171447 -0.24255148 4283008371
1.4489111 -1.5141705 -0.21427448 4289112747
1.4673882 -1.5339553 -0.23159865 4287207058
-0.65717864 -1.4500821 -0.22913253 4278915087
-0.60784864 -1.4523308 -0.21501958 4278914574
-0.59223002 -1.4695166 -0.20782483 4279375895
-0.46439534 -1.4665929 -0.22037551 4279185977
-0.44213921 -1.4855258 -0.22209977 4279123520
-0.37582871 -1.4713759 -0.20156372 4280756012
-0.20984504 -1.4734085 -0.22832142 4282475354
-0.19572768 -1.4860559 -0.22741306 4283784278
-0.002666398 -1.4977961 -0.20103049 4284388737
0.01674905 -1.4878926 -0.22561204 4282421363
0.051713191 -1.4803528 -0.23482315 4284060800
1.4411652 -1.4733021 -0.21751806 4286615948
1.4712914 -1.487397 -0.22914183 4287467152
-0.62575823 -1.4171108 -0.22746395 4278980880
-0.5764181 -1.4152551 -0.22574425 4278980623
-0.47289976 -1.4230847 -0.22198702 4279384122
